ncols	379
nrows	31
xllcorner	785437.01
yllcorner	190994.01
cellsize	1
NODATA_value	-9999
1509	1509.04	1509.03	1509.02	1508.98	1509.17	1509.07	1509.05	1509.08	1509.19	1509.29	1509.41	1509.47	1509.59	1509.55	1509.67	1509.65	1509.73	1509.7	1510.2	1510.26	1512.03	1513.94	1515.77	1517.94	1518.32	1517.97	1517.61	1517.26	1516.89	1516.56	1515.69	1512.71	1512.56	1512.68	1512.68	1513.21	1513.93	1514.26	1514.63	1514.99	1515.2	1515.41	1515.66	1515.85	1516.01	1516.17	1516.28	1516.42	1516.59	1516.62	1516.64	1516.77	1516.85	1516.78	1516.83	1516.84	1516.75	1516.73	1516.71	1516.62	1516.55	1516.56	1516.54	1516.62	1516.73	1516.68	1516.78	1516.84	1516.89	1517.1	1517.19	1517.39	1517.58	1517.74	1517.87	1517.99	1518.16	1518.35	1518.52	1518.83	1519.23	1519.58	1519.87	1520.21	1520.55	1520.75	1521.05	1521.19	1521.34	1521.4	1521.51	1521.57	1521.63	1521.6	1521.7	1521.67	1521.65	1521.62	1521.49	1521.46	1521.49	1521.49	1521.44	1521.48	1521.48	1521.52	1521.47	1521.46	1521.49	1521.47	1521.47	1521.42	1521.4	1521.42	1521.52	1521.63	1521.72	1521.92	1522.02	1522.07	1522.03	1522	1521.93	1521.87	1521.81	1521.67	1521.59	1521.44	1521.23	1521.07	1520.94	1520.77	1520.69	1520.64	1520.58	1520.49	1520.41	1520.3	1520.23	1520.12	1520.01	1519.96	1519.85	1519.73	1519.59	1519.46	1519.48	1519.66	1519.78	1519.82	1519.82	1519.8	1519.82	1519.85	1519.88	1519.92	1519.97	1519.92	1519.96	1520.18	1520.75	1521.14	1521.04	1520.95	1520.97	1521.04	1521.06	1521.19	1521.34	1521.42	1521.52	1521.63	1521.73	1521.82	1521.9	1522.02	1522.11	1522.17	1522.2	1522.33	1522.44	1522.48	1522.59	1522.75	1522.89	1522.99	1523.08	1523.1	1523.14	1523.18	1523.29	1523.38	1523.5	1523.73	1523.99	1524.18	1524.45	1524.65	1524.8	1525.01	1525.14	1525.25	1525.35	1525.45	1525.56	1525.72	1525.93	1526.09	1526.19	1526.3	1526.47	1526.67	1526.77	1527.05	1527.45	1527.85	1528.25	1528.53	1528.78	1529.17	1529.51	1529.8	1530.05	1530.27	1530.44	1530.55	1530.61	1530.73	1530.78	1530.87	1530.92	1530.95	1531.06	1531.17	1531.48	1531.7	1531.95	1532.26	1532.48	1532.54	1532.68	1532.81	1532.89	1532.9	1532.73	1532.59	1532.48	1532.46	1532.51	1532.57	1532.61	1532.74	1532.74	1532.8	1532.84	1532.78	1532.63	1532.54	1532.5	1532.48	1532.44	1532.35	1532.31	1532.28	1532.33	1532.3	1532.29	1532.34	1532.27	1532.36	1532.37	1532.34	1532.38	1532.45	1532.54	1532.53	1532.51	1532.46	1532.44	1532.34	1532.3	1532.42	1532.59	1532.68	1532.48	1532.72	1532.67	1532.77	1532.93	1532.86	1532.76	1532.65	1532.63	1532.62	1532.68	1532.76	1532.82	1532.92	1533	1532.98	1533.01	1532.93	1532.83	1532.62	1532.47	1532.27	1532.51	1532.86	1532.91	1533.03	1533.36	1533.6	1533.73	1533.36	1532.74	1532.34	1532.04	1531.77	1531.69	1531.54	1531.34	1531.21	1531	1530.92	1530.88	1530.83	1530.68	1530.64	1530.63	1530.63	1530.66	1530.7	1530.73	1530.7	1530.7	1530.66	1530.63	1530.59	1530.49	1530.4	1530.34	1530.29	1530.18	1530.07	1529.94	1529.67	1529.58	1529.39	1529.24	1529.07	1528.9	1528.7	1528.58	1528.39	1528.23	1528.04	1527.83	1527.62	1527.43	1527.34	1527.16	1527.02	1526.85	1526.67	1526.54	1526.39	1526.18	1526.01	1525.9	1525.77	1525.64	1525.47	1525.3	1525.06	1524.85	1524.85	1524.69	1524.42
1509.01	1509.1	1509.12	1509.08	1509.16	1509.17	1509.12	1509.08	1509.13	1509.24	1509.28	1509.43	1509.58	1509.61	1509.63	1509.71	1509.65	1509.72	1510.04	1510.31	1510.1	1510.14	1511.41	1512.88	1515.01	1515.55	1515.72	1517.11	1517.1	1516.76	1516.39	1513.28	1512.57	1512.56	1512.58	1512.79	1513.35	1513.86	1514.21	1514.67	1515.07	1515.36	1515.49	1515.64	1515.87	1516.07	1516.33	1516.45	1516.6	1516.72	1516.74	1516.81	1516.94	1516.91	1516.9	1516.9	1516.93	1516.89	1516.89	1516.8	1516.75	1516.73	1516.71	1516.7	1516.71	1516.72	1516.78	1516.84	1516.91	1517	1517.11	1517.26	1517.43	1517.67	1517.79	1518.02	1518.11	1518.26	1518.33	1518.67	1518.91	1519.27	1519.64	1520.03	1520.38	1520.6	1520.83	1521.01	1521.21	1521.36	1521.46	1521.49	1521.57	1521.6	1521.62	1521.66	1521.61	1521.61	1521.57	1521.49	1521.43	1521.41	1521.44	1521.44	1521.39	1521.46	1521.47	1521.53	1521.5	1521.51	1521.54	1521.54	1521.56	1521.53	1521.59	1521.7	1521.86	1522.05	1522.13	1522.18	1522.2	1522.14	1522.09	1522.04	1521.91	1521.81	1521.7	1521.48	1521.31	1521.12	1520.94	1520.8	1520.7	1520.63	1520.57	1520.52	1520.44	1520.38	1520.28	1520.2	1520.1	1520	1519.95	1519.87	1519.78	1519.68	1519.61	1519.47	1519.63	1519.68	1519.79	1519.82	1519.78	1519.78	1519.86	1519.86	1519.87	1519.87	1520	1520.33	1520.84	1520.87	1520.94	1520.98	1520.96	1520.99	1521.06	1521.15	1521.23	1521.36	1521.44	1521.54	1521.66	1521.78	1521.91	1522.07	1522.07	1522.14	1522.25	1522.3	1522.47	1522.52	1522.56	1522.72	1522.88	1522.96	1523.02	1523.09	1523.14	1523.23	1523.23	1523.31	1523.43	1523.63	1523.86	1524.09	1524.28	1524.45	1524.63	1524.81	1524.99	1525.11	1525.27	1525.47	1525.53	1525.66	1525.79	1525.91	1526.03	1526.14	1526.34	1526.4	1526.59	1526.86	1527.13	1527.46	1527.93	1528.33	1528.64	1528.9	1529.26	1529.59	1529.91	1530.14	1530.31	1530.5	1530.69	1530.77	1530.82	1530.88	1530.97	1531.11	1531.09	1531.07	1531.19	1531.48	1531.67	1531.93	1532.26	1532.44	1532.57	1532.71	1532.82	1532.79	1532.8	1532.75	1532.52	1532.42	1532.29	1532.34	1532.45	1532.56	1532.62	1532.65	1532.66	1532.63	1532.6	1532.44	1532.37	1532.42	1532.39	1532.21	1532.2	1532.07	1532.13	1532.21	1532.17	1532.2	1532.29	1532.31	1532.19	1532.11	1532.19	1532.33	1532.35	1532.49	1532.51	1532.46	1532.41	1532.4	1532.35	1532.39	1532.62	1532.7	1532.48	1532.48	1532.74	1532.8	1532.94	1532.94	1532.87	1532.8	1532.76	1532.76	1532.75	1532.84	1532.97	1533.13	1533.33	1533.19	1533.29	1533.28	1533.11	1533.1	1532.62	1532.23	1532.11	1532.27	1532.32	1532.36	1532.52	1532.66	1532.7	1532.76	1532.79	1532.45	1532.15	1531.92	1531.68	1531.65	1531.51	1531.25	1531.07	1530.95	1530.88	1530.81	1530.78	1530.64	1530.58	1530.57	1530.58	1530.6	1530.65	1530.64	1530.66	1530.64	1530.63	1530.53	1530.53	1530.42	1530.38	1530.31	1530.26	1530.14	1530.06	1529.91	1529.71	1529.54	1529.39	1529.24	1529.06	1528.9	1528.74	1528.58	1528.41	1528.23	1528.09	1527.88	1527.65	1527.49	1527.33	1527.23	1527.03	1526.89	1526.75	1526.56	1526.41	1526.21	1526.04	1525.9	1525.76	1525.61	1525.44	1525.23	1525.03	1524.83	1524.71	1524.61	1524.46
1509.02	1509.08	1509.08	1509.11	1509.16	1509.04	1509.09	1509.13	1509.16	1509.26	1509.35	1509.43	1509.48	1509.56	1509.69	1509.74	1509.79	1509.73	1510.18	1510.21	1510.2	1510.26	1510.23	1510.17	1511.19	1512.04	1512.85	1514.61	1516.4	1516.67	1515.69	1512.62	1512.4	1512.57	1512.47	1512.87	1513.45	1513.87	1514.29	1514.69	1515	1515.31	1515.56	1515.77	1516.03	1516.22	1516.39	1516.52	1516.71	1516.82	1516.83	1516.91	1516.96	1517	1517.02	1516.98	1516.99	1516.9	1516.97	1516.93	1516.89	1516.88	1516.85	1516.81	1516.76	1516.76	1516.88	1516.9	1516.98	1517.06	1517.19	1517.31	1517.53	1517.68	1517.86	1518.01	1518.16	1518.27	1518.5	1518.75	1518.94	1519.41	1519.79	1520.11	1520.4	1520.61	1520.81	1521.04	1521.2	1521.29	1521.43	1521.49	1521.57	1521.6	1521.6	1521.55	1521.48	1521.5	1521.45	1521.39	1521.37	1521.35	1521.35	1521.36	1521.38	1521.43	1521.5	1521.55	1521.53	1521.58	1521.64	1521.64	1521.66	1521.62	1521.69	1521.83	1522.07	1522.16	1522.26	1522.26	1522.27	1522.2	1522.18	1522.05	1521.91	1521.71	1521.51	1521.33	1521.09	1520.97	1520.78	1520.67	1520.57	1520.55	1520.49	1520.45	1520.38	1520.3	1520.22	1520.16	1520.09	1519.98	1519.92	1519.89	1519.79	1519.73	1519.7	1519.56	1519.66	1519.6	1519.77	1519.84	1519.84	1519.82	1519.82	1519.81	1519.86	1520.19	1520.7	1520.7	1520.74	1520.78	1520.88	1520.97	1520.99	1521.13	1521.22	1521.31	1521.35	1521.41	1521.48	1521.59	1521.69	1521.84	1521.97	1522.12	1522.22	1522.28	1522.34	1522.41	1522.6	1522.65	1522.67	1522.8	1522.92	1522.98	1523.07	1523.15	1523.19	1523.2	1523.27	1523.37	1523.53	1523.73	1523.99	1524.16	1524.36	1524.51	1524.65	1524.85	1525.03	1525.2	1525.37	1525.55	1525.6	1525.72	1525.84	1525.91	1526.01	1526.12	1526.32	1526.45	1526.63	1526.85	1527.11	1527.43	1527.85	1528.31	1528.65	1528.93	1529.26	1529.61	1529.94	1530.15	1530.34	1530.58	1530.79	1530.89	1530.92	1530.99	1531.11	1531.19	1531.16	1531.18	1531.24	1531.42	1531.6	1531.87	1532.22	1532.48	1532.59	1532.68	1532.71	1532.7	1532.74	1532.63	1532.46	1532.29	1532.17	1532.04	1532.15	1532.28	1532.32	1532.38	1532.39	1532.4	1532.33	1532.23	1532.19	1532.23	1532.05	1531.97	1531.96	1531.95	1531.91	1532.11	1532.08	1532.12	1532.26	1532.14	1532.11	1532.01	1532.05	1532.17	1532.17	1532.3	1532.31	1532.33	1532.35	1532.34	1532.34	1532.48	1532.63	1532.58	1532.54	1532.78	1532.87	1533	1533.04	1532.95	1532.89	1532.93	1532.93	1532.89	1532.88	1532.96	1533.13	1533.47	1533.48	1533.33	1533.39	1533.38	1533.33	1533.26	1532.97	1532.39	1532.06	1532.06	1532.05	1532.07	1532.09	1532.19	1532.31	1532.39	1532.36	1532.2	1531.91	1531.75	1531.67	1531.74	1531.44	1531.15	1530.92	1530.85	1530.8	1530.79	1530.72	1530.62	1530.55	1530.56	1530.58	1530.55	1530.6	1530.6	1530.6	1530.57	1530.53	1530.53	1530.43	1530.35	1530.31	1530.25	1530.22	1530.08	1530.05	1529.91	1529.72	1529.58	1529.4	1529.27	1529.11	1528.92	1528.75	1528.62	1528.41	1528.24	1528.1	1527.89	1527.71	1527.56	1527.34	1527.23	1527.09	1526.94	1526.77	1526.6	1526.41	1526.27	1526.08	1525.89	1525.75	1525.54	1525.39	1525.2	1525	1524.81	1524.66	1524.68	1524.56
1509.04	1509.12	1509.16	1509.04	1509.11	1509.15	1509.22	1509.18	1509.24	1509.28	1509.35	1509.47	1509.56	1509.67	1509.69	1509.85	1509.94	1510.06	1510.06	1510.07	1509.99	1510.17	1510.21	1510.26	1510.52	1510.91	1511.2	1511.45	1512.48	1513.55	1513.2	1512.5	1512.3	1512.48	1512.49	1513.05	1513.43	1513.75	1514.16	1514.58	1514.97	1515.33	1515.58	1515.85	1516.01	1516.23	1516.36	1516.63	1516.73	1516.76	1516.8	1516.91	1516.98	1517	1516.99	1516.99	1516.96	1516.97	1516.93	1516.97	1516.96	1516.94	1516.92	1516.91	1516.86	1516.9	1516.88	1517.01	1517.18	1517.22	1517.3	1517.43	1517.56	1517.77	1517.92	1518.07	1518.21	1518.38	1518.51	1518.71	1518.98	1519.34	1519.71	1520.05	1520.39	1520.59	1520.81	1520.96	1521.19	1521.33	1521.43	1521.51	1521.55	1521.56	1521.5	1521.51	1521.44	1521.45	1521.35	1521.29	1521.27	1521.23	1521.21	1521.32	1521.36	1521.43	1521.47	1521.54	1521.58	1521.6	1521.69	1521.68	1521.68	1521.73	1521.82	1521.94	1522.08	1522.27	1522.28	1522.33	1522.32	1522.2	1522.08	1521.94	1521.75	1521.54	1521.34	1521.1	1520.91	1520.76	1520.65	1520.57	1520.53	1520.46	1520.42	1520.39	1520.32	1520.26	1520.18	1520.1	1520.03	1519.96	1519.9	1519.93	1519.85	1519.78	1519.76	1519.7	1519.64	1519.6	1519.71	1519.82	1519.81	1519.77	1519.85	1520.3	1520.47	1520.62	1520.64	1520.69	1520.77	1520.86	1520.88	1521.03	1521.17	1521.32	1521.47	1521.48	1521.45	1521.5	1521.56	1521.66	1521.74	1521.91	1522.04	1522.16	1522.31	1522.38	1522.44	1522.57	1522.7	1522.74	1522.77	1522.85	1522.93	1523.02	1523.12	1523.17	1523.2	1523.29	1523.35	1523.47	1523.63	1523.81	1524	1524.15	1524.34	1524.53	1524.71	1524.87	1525.04	1525.25	1525.38	1525.53	1525.64	1525.73	1525.86	1525.95	1526.02	1526.17	1526.27	1526.45	1526.61	1526.82	1527.08	1527.49	1527.96	1528.31	1528.62	1528.95	1529.29	1529.61	1529.87	1530.12	1530.3	1530.47	1530.6	1530.79	1530.89	1531.01	1531.14	1531.16	1531.2	1531.23	1531.32	1531.35	1531.54	1531.81	1532.18	1532.41	1532.5	1532.58	1532.6	1532.58	1532.59	1532.44	1532.18	1532.16	1532.04	1531.99	1531.97	1532.11	1532.08	1532.14	1532.12	1532.11	1532.06	1531.97	1531.95	1531.95	1531.96	1531.81	1531.79	1531.84	1531.78	1532.01	1531.95	1531.92	1531.91	1531.89	1532	1531.92	1531.87	1531.98	1532.04	1532.13	1532.21	1532.24	1532.26	1532.41	1532.45	1532.46	1532.43	1532.4	1532.55	1532.78	1532.91	1533.1	1533.08	1532.92	1532.99	1533	1533.03	1533.08	1533.07	1533.17	1533.24	1533.47	1533.5	1533.43	1533.4	1533.43	1533.48	1533.38	1533.22	1532.88	1532.43	1532.11	1531.97	1532	1532.17	1532.29	1532.32	1532.29	1532.23	1532.12	1531.89	1531.68	1531.64	1531.75	1531.45	1531.1	1530.9	1530.79	1530.77	1530.73	1530.68	1530.62	1530.55	1530.51	1530.5	1530.52	1530.51	1530.52	1530.51	1530.48	1530.45	1530.4	1530.33	1530.28	1530.25	1530.21	1530.13	1530.05	1529.96	1529.85	1529.71	1529.58	1529.4	1529.29	1529.12	1528.97	1528.78	1528.62	1528.44	1528.26	1528.1	1527.9	1527.72	1527.59	1527.41	1527.29	1527.11	1526.97	1526.79	1526.65	1526.5	1526.25	1526.1	1525.91	1525.76	1525.56	1525.36	1525.13	1524.97	1524.75	1524.67	1524.68	1524.6
1508.99	1509.07	1509.09	1509.07	1509.16	1509.15	1509.21	1509.19	1509.21	1509.34	1509.37	1509.49	1509.61	1509.68	1509.67	1509.87	1509.92	1509.95	1509.91	1510.06	1510.08	1510.23	1510.25	1510.42	1510.65	1510.93	1511.26	1511.53	1511.72	1512.04	1512.3	1512.2	1512.35	1512.35	1512.55	1513.01	1513.29	1513.63	1514.04	1514.47	1514.83	1515.14	1515.5	1515.8	1516.06	1516.17	1516.33	1516.43	1516.59	1516.71	1516.78	1516.84	1516.91	1516.91	1516.99	1516.96	1516.95	1516.93	1516.92	1516.93	1516.94	1516.96	1516.97	1516.87	1516.94	1517.03	1517.1	1517.14	1517.22	1517.34	1517.4	1517.53	1517.66	1517.73	1517.9	1518.1	1518.28	1518.43	1518.59	1518.74	1519.07	1519.44	1519.78	1520.1	1520.37	1520.58	1520.75	1521.01	1521.14	1521.3	1521.33	1521.46	1521.51	1521.5	1521.47	1521.46	1521.42	1521.42	1521.32	1521.23	1521.25	1521.16	1521.18	1521.21	1521.27	1521.37	1521.49	1521.53	1521.58	1521.6	1521.67	1521.72	1521.72	1521.78	1521.91	1522.03	1522.21	1522.29	1522.28	1522.26	1522.21	1521.99	1521.8	1521.64	1521.47	1521.28	1521.08	1520.9	1520.68	1520.57	1520.5	1520.46	1520.44	1520.41	1520.39	1520.33	1520.26	1520.22	1520.13	1520.07	1520	1519.95	1519.88	1519.89	1519.87	1519.79	1519.81	1519.77	1519.64	1519.74	1519.71	1519.83	1519.8	1520.05	1520.49	1520.6	1520.6	1520.57	1520.64	1520.76	1520.94	1521.04	1521.12	1521.23	1521.37	1521.51	1521.61	1521.61	1521.64	1521.63	1521.66	1521.77	1521.9	1522.05	1522.14	1522.22	1522.38	1522.5	1522.6	1522.73	1522.83	1522.86	1522.85	1522.92	1523.01	1523.08	1523.18	1523.28	1523.31	1523.35	1523.43	1523.56	1523.68	1523.86	1524	1524.18	1524.33	1524.5	1524.69	1524.86	1525.07	1525.2	1525.35	1525.5	1525.61	1525.69	1525.82	1525.91	1526.02	1526.15	1526.28	1526.47	1526.61	1526.81	1527.1	1527.47	1527.94	1528.32	1528.66	1528.98	1529.27	1529.56	1529.78	1529.99	1530.18	1530.31	1530.4	1530.57	1530.73	1530.84	1531	1531.1	1531.12	1531.22	1531.29	1531.31	1531.45	1531.81	1532.03	1532.21	1532.31	1532.4	1532.43	1532.43	1532.32	1532.29	1532	1532.04	1531.91	1531.82	1531.77	1531.84	1531.92	1531.94	1531.88	1531.89	1531.84	1531.76	1531.75	1531.77	1531.83	1531.65	1531.59	1531.63	1531.73	1531.92	1531.84	1531.76	1531.72	1531.76	1531.72	1531.76	1531.86	1531.91	1531.98	1531.98	1532.22	1532.06	1532.28	1532.49	1532.64	1532.72	1532.76	1532.53	1532.57	1532.76	1532.85	1533.04	1533.16	1533.04	1533.04	1533.09	1533.11	1533.17	1533.33	1533.36	1533.32	1533.46	1533.45	1533.43	1533.46	1533.59	1533.59	1533.55	1533.42	1533.25	1533	1532.54	1532.07	1531.93	1532.1	1532.33	1532.37	1532.28	1532.21	1532.11	1532.02	1531.71	1531.61	1531.51	1531.31	1531.06	1530.94	1530.85	1530.77	1530.77	1530.71	1530.61	1530.52	1530.37	1530.51	1530.52	1530.48	1530.44	1530.4	1530.36	1530.35	1530.3	1530.25	1530.23	1530.13	1530.12	1530.08	1529.99	1529.91	1529.8	1529.69	1529.53	1529.4	1529.3	1529.1	1528.94	1528.81	1528.65	1528.45	1528.26	1528.06	1527.95	1527.79	1527.64	1527.48	1527.3	1527.13	1526.97	1526.87	1526.72	1526.53	1526.34	1526.11	1525.95	1525.77	1525.57	1525.39	1525.17	1525	1524.82	1524.72	1524.68	1524.64
1508.98	1509	1509.06	1509.07	1509.1	1509.19	1509.23	1509.28	1509.24	1509.36	1509.42	1509.48	1509.66	1509.67	1509.74	1509.84	1509.87	1509.81	1509.96	1510.02	1510.24	1510.29	1510.54	1510.61	1510.92	1511.16	1511.43	1511.61	1511.82	1511.98	1512.13	1512.12	1512.28	1512.29	1512.62	1512.9	1513.11	1513.41	1513.8	1514.24	1514.73	1515	1515.24	1515.63	1515.87	1516.04	1516.19	1516.3	1516.38	1516.56	1516.68	1516.69	1516.76	1516.77	1516.81	1516.85	1516.84	1516.87	1516.86	1516.87	1516.84	1516.93	1516.98	1516.98	1516.95	1517.08	1517.14	1517.27	1517.32	1517.41	1517.5	1517.58	1517.65	1517.8	1517.97	1518.12	1518.22	1518.4	1518.55	1518.85	1519.1	1519.39	1519.75	1520.14	1520.4	1520.61	1520.79	1520.92	1521.12	1521.23	1521.3	1521.41	1521.43	1521.44	1521.41	1521.4	1521.38	1521.3	1521.29	1521.15	1521.11	1521.09	1521.08	1521.13	1521.23	1521.37	1521.42	1521.45	1521.52	1521.61	1521.67	1521.71	1521.74	1521.85	1521.94	1522.1	1522.19	1522.26	1522.18	1522.07	1521.93	1521.69	1521.5	1521.35	1521.21	1521	1520.87	1520.67	1520.51	1520.45	1520.41	1520.34	1520.3	1520.34	1520.31	1520.3	1520.22	1520.16	1520.12	1520.02	1519.96	1519.91	1519.87	1519.88	1519.88	1519.81	1519.79	1519.83	1519.68	1519.64	1519.68	1519.92	1520.33	1520.43	1520.58	1520.58	1520.67	1520.69	1520.76	1520.94	1521.16	1521.29	1521.38	1521.49	1521.58	1521.68	1521.75	1521.83	1521.85	1521.86	1521.87	1521.98	1522.1	1522.23	1522.32	1522.44	1522.55	1522.61	1522.77	1522.92	1522.98	1522.99	1522.95	1523	1523.1	1523.19	1523.28	1523.32	1523.38	1523.41	1523.48	1523.61	1523.72	1523.83	1524.03	1524.19	1524.34	1524.49	1524.64	1524.79	1525.01	1525.15	1525.34	1525.48	1525.58	1525.67	1525.78	1525.88	1526.03	1526.12	1526.29	1526.44	1526.59	1526.77	1527.11	1527.46	1527.86	1528.24	1528.62	1528.96	1529.14	1529.47	1529.66	1529.86	1530	1530.21	1530.26	1530.41	1530.57	1530.7	1530.85	1530.94	1530.99	1531.07	1531.19	1531.38	1531.48	1531.58	1531.77	1531.94	1532.07	1532.16	1532.29	1532.2	1532.07	1532.05	1531.91	1531.82	1531.52	1531.44	1531.44	1531.72	1531.7	1531.69	1531.69	1531.76	1531.65	1531.56	1531.52	1531.64	1531.62	1531.53	1531.52	1531.51	1531.64	1531.67	1531.64	1531.72	1531.59	1531.63	1531.61	1531.65	1531.77	1531.78	1531.82	1531.94	1531.97	1532.1	1532.34	1532.56	1532.72	1532.78	1532.7	1532.58	1532.57	1532.73	1532.84	1532.94	1533.02	1533.07	1533.12	1533.11	1533.19	1533.32	1533.44	1533.5	1533.56	1533.61	1533.46	1533.38	1533.4	1533.49	1533.56	1533.56	1533.5	1533.42	1533.27	1533.03	1532.52	1532.03	1531.94	1532.02	1532.42	1532.25	1532.18	1532.09	1531.97	1531.72	1531.55	1531.45	1531.26	1531.01	1530.93	1530.85	1530.79	1530.77	1530.73	1530.6	1530.55	1530.49	1530.48	1530.47	1530.39	1530.4	1530.33	1530.26	1530.23	1530.2	1530.12	1530.08	1530.04	1530.02	1529.97	1529.95	1529.85	1529.74	1529.69	1529.53	1529.41	1529.24	1529.09	1528.96	1528.83	1528.64	1528.48	1528.28	1528.12	1527.97	1527.8	1527.64	1527.49	1527.3	1527.16	1527.01	1526.85	1526.76	1526.57	1526.4	1526.19	1526.01	1525.83	1525.62	1525.38	1525.23	1525.03	1524.87	1524.71	1524.61	1524.63
1508.83	1508.98	1509.04	1509.1	1509.13	1509.15	1509.16	1509.28	1509.3	1509.31	1509.43	1509.53	1509.67	1509.73	1509.82	1509.74	1509.75	1509.85	1509.91	1510.23	1510.4	1510.61	1510.75	1510.93	1511.12	1511.33	1511.53	1511.68	1511.82	1511.96	1511.96	1512.03	1512.17	1512.26	1512.5	1512.8	1513.04	1513.39	1513.66	1514.07	1514.43	1514.72	1515.1	1515.39	1515.6	1515.78	1515.98	1516.11	1516.27	1516.36	1516.39	1516.51	1516.58	1516.64	1516.66	1516.7	1516.69	1516.73	1516.76	1516.75	1516.84	1516.88	1516.97	1517.02	1517.11	1517.16	1517.16	1517.28	1517.36	1517.53	1517.58	1517.66	1517.65	1517.77	1517.9	1518.08	1518.27	1518.45	1518.61	1518.86	1519.13	1519.44	1519.82	1520.09	1520.32	1520.53	1520.77	1520.88	1521.05	1521.14	1521.21	1521.31	1521.36	1521.35	1521.29	1521.33	1521.31	1521.28	1521.24	1521.16	1521.12	1521.05	1521.05	1521.09	1521.14	1521.22	1521.37	1521.44	1521.47	1521.52	1521.58	1521.66	1521.72	1521.8	1521.88	1522.06	1522.12	1522.07	1521.94	1521.78	1521.59	1521.43	1521.25	1521.04	1520.85	1520.74	1520.63	1520.46	1520.4	1520.34	1520.29	1520.25	1520.27	1520.27	1520.25	1520.24	1520.22	1520.14	1520.07	1520.01	1519.93	1519.89	1519.88	1519.88	1519.86	1519.81	1519.76	1519.7	1519.65	1519.79	1520.29	1520.37	1520.4	1520.52	1520.65	1520.79	1520.89	1520.88	1520.95	1521.12	1521.34	1521.49	1521.61	1521.7	1521.81	1521.92	1521.96	1522.06	1522.08	1522.09	1522.08	1522.14	1522.33	1522.4	1522.53	1522.66	1522.75	1522.77	1522.88	1523.07	1523.14	1523.13	1523.14	1523.13	1523.21	1523.27	1523.37	1523.4	1523.41	1523.49	1523.56	1523.64	1523.72	1523.84	1524.07	1524.21	1524.37	1524.49	1524.63	1524.74	1524.97	1525.17	1525.28	1525.42	1525.53	1525.66	1525.75	1525.89	1525.98	1526.14	1526.28	1526.43	1526.57	1526.79	1527.06	1527.3	1527.71	1528.13	1528.5	1528.75	1529.04	1529.3	1529.53	1529.68	1529.85	1530.06	1530.15	1530.29	1530.41	1530.54	1530.68	1530.78	1530.82	1530.96	1531.11	1531.29	1531.35	1531.4	1531.6	1531.74	1531.82	1531.86	1531.91	1531.88	1531.74	1531.72	1531.66	1531.43	1531.21	1531.09	1531.3	1531.45	1531.46	1531.42	1531.43	1531.61	1531.44	1531.34	1531.38	1531.43	1531.37	1531.39	1531.39	1531.49	1531.5	1531.46	1531.51	1531.76	1531.58	1531.58	1531.51	1531.55	1531.69	1531.74	1531.7	1531.82	1531.86	1532.06	1532.33	1532.52	1532.58	1532.73	1532.72	1532.71	1532.71	1532.8	1532.95	1532.99	1533.05	1533.12	1533.17	1533.24	1533.37	1533.44	1533.59	1533.61	1533.7	1533.51	1533.4	1533.45	1533.48	1533.62	1533.57	1533.58	1533.58	1533.44	1533.4	1533.36	1533.04	1532.6	1532.07	1531.83	1531.99	1532.16	1532.14	1531.88	1531.76	1531.61	1531.54	1531.34	1531.14	1531.01	1530.94	1530.85	1530.74	1530.73	1530.71	1530.62	1530.54	1530.51	1530.49	1530.42	1530.39	1530.35	1530.25	1530.13	1530.11	1530.06	1529.98	1529.98	1529.95	1529.91	1529.92	1529.88	1529.84	1529.72	1529.6	1529.5	1529.38	1529.24	1529.1	1528.95	1528.82	1528.68	1528.46	1528.28	1528.11	1527.97	1527.81	1527.65	1527.52	1527.34	1527.22	1527.04	1526.92	1526.73	1526.57	1526.44	1526.24	1526.1	1525.92	1525.69	1525.5	1525.26	1525.09	1524.94	1524.76	1524.65	1524.6
1508.8	1508.99	1509.06	1509.02	1509.1	1509.14	1509.17	1509.21	1509.26	1509.41	1509.51	1509.59	1509.64	1509.7	1509.65	1509.66	1509.74	1509.81	1510.01	1510.28	1510.57	1510.82	1510.94	1511.13	1511.21	1511.41	1511.63	1511.78	1511.83	1511.86	1511.83	1511.96	1512.04	1512.34	1512.55	1512.72	1512.84	1513.16	1513.54	1514	1514.29	1514.52	1514.79	1515.05	1515.34	1515.57	1515.77	1515.85	1515.98	1516.16	1516.19	1516.29	1516.34	1516.39	1516.43	1516.49	1516.55	1516.63	1516.7	1516.71	1516.84	1516.95	1517.08	1517.07	1517.14	1517.16	1517.19	1517.32	1517.41	1517.48	1517.55	1517.66	1517.71	1517.76	1517.92	1518.03	1518.22	1518.49	1518.63	1518.88	1519.13	1519.35	1519.69	1520.09	1520.26	1520.54	1520.66	1520.79	1520.95	1521.08	1521.15	1521.19	1521.2	1521.23	1521.27	1521.28	1521.26	1521.18	1521.13	1521.1	1521.06	1521	1520.98	1521.01	1521.07	1521.15	1521.27	1521.29	1521.39	1521.43	1521.51	1521.58	1521.64	1521.7	1521.8	1521.89	1521.88	1521.8	1521.62	1521.5	1521.32	1521.13	1520.94	1520.77	1520.6	1520.49	1520.43	1520.32	1520.31	1520.3	1520.22	1520.19	1520.21	1520.21	1520.22	1520.19	1520.13	1520.08	1520.02	1519.96	1519.89	1519.83	1519.82	1519.86	1519.81	1519.72	1519.68	1519.78	1519.85	1520.17	1520.28	1520.39	1520.51	1520.68	1520.85	1521.02	1521.1	1521.13	1521.18	1521.31	1521.49	1521.6	1521.76	1521.93	1521.99	1522.1	1522.21	1522.31	1522.33	1522.34	1522.37	1522.33	1522.46	1522.58	1522.67	1522.85	1522.96	1523	1523.11	1523.24	1523.28	1523.26	1523.26	1523.29	1523.3	1523.37	1523.43	1523.44	1523.47	1523.53	1523.58	1523.66	1523.78	1523.93	1524.1	1524.25	1524.42	1524.61	1524.7	1524.74	1524.9	1525.14	1525.26	1525.36	1525.52	1525.61	1525.74	1525.86	1526	1526.09	1526.22	1526.38	1526.56	1526.72	1526.95	1527.29	1527.61	1527.96	1528.32	1528.64	1528.91	1529.16	1529.37	1529.52	1529.69	1529.83	1529.96	1530.11	1530.29	1530.44	1530.49	1530.61	1530.74	1530.83	1530.92	1531.07	1531.2	1531.19	1531.35	1531.52	1531.51	1531.56	1531.59	1531.55	1531.53	1531.47	1531.33	1531.11	1531.05	1530.93	1531	1531.2	1531.2	1531.21	1531.3	1531.4	1531.33	1531.24	1531.21	1531.34	1531.26	1531.19	1531.23	1531.29	1531.38	1531.4	1531.45	1531.5	1531.54	1531.85	1531.49	1531.56	1531.62	1531.64	1531.7	1531.87	1531.95	1532.06	1532.37	1532.46	1532.65	1532.78	1532.74	1532.78	1532.84	1532.9	1532.97	1533.03	1533.06	1533.17	1533.27	1533.37	1533.5	1533.54	1533.59	1533.66	1533.58	1533.49	1533.54	1533.58	1533.64	1533.74	1533.6	1533.6	1533.57	1533.53	1533.48	1533.46	1533.35	1533.07	1532.55	1532.01	1531.75	1531.83	1531.94	1531.84	1531.7	1531.52	1531.41	1531.34	1531.15	1531	1530.81	1530.67	1530.61	1530.61	1530.6	1530.57	1530.49	1530.46	1530.4	1530.36	1530.33	1530.25	1530.17	1530.08	1530.01	1529.96	1529.92	1529.9	1529.85	1529.85	1529.85	1529.84	1529.79	1529.68	1529.59	1529.5	1529.36	1529.22	1529.11	1528.97	1528.82	1528.64	1528.44	1528.24	1528.1	1527.96	1527.85	1527.66	1527.51	1527.37	1527.19	1527.09	1526.92	1526.8	1526.63	1526.5	1526.32	1526.16	1525.96	1525.72	1525.51	1525.32	1525.15	1524.95	1524.76	1524.66	1524.57
1508.81	1508.81	1509.12	1508.94	1509.01	1509.07	1509.08	1509.19	1509.25	1509.29	1509.43	1509.45	1509.45	1509.55	1509.63	1509.63	1509.71	1509.91	1510.24	1510.47	1510.72	1510.9	1511.05	1511.17	1511.33	1511.53	1511.69	1511.77	1511.8	1511.73	1511.78	1511.92	1511.96	1512.23	1512.48	1512.71	1512.91	1513.07	1513.37	1513.71	1514.05	1514.26	1514.57	1514.74	1514.96	1515.24	1515.39	1515.53	1515.74	1515.82	1515.91	1515.99	1516.15	1516.17	1516.24	1516.26	1516.36	1516.48	1516.63	1516.7	1516.81	1516.9	1517.01	1517.02	1517.12	1517.16	1517.24	1517.36	1517.36	1517.44	1517.59	1517.62	1517.65	1517.68	1517.94	1518.12	1518.3	1518.44	1518.59	1518.78	1519.06	1519.32	1519.7	1519.95	1520.2	1520.44	1520.63	1520.75	1520.91	1521	1521.07	1521.08	1521.11	1521.15	1521.16	1521.22	1521.16	1521.14	1521.07	1521.02	1520.96	1520.92	1520.88	1520.89	1520.9	1520.97	1521.12	1521.2	1521.27	1521.35	1521.43	1521.47	1521.53	1521.62	1521.62	1521.66	1521.64	1521.52	1521.38	1521.24	1521.03	1520.86	1520.72	1520.56	1520.42	1520.31	1520.29	1520.2	1520.18	1520.17	1520.16	1520.2	1520.19	1520.17	1520.17	1520.14	1520.13	1520.03	1519.95	1519.92	1519.85	1519.81	1519.8	1519.77	1519.71	1519.68	1519.75	1519.87	1519.94	1520.12	1520.24	1520.35	1520.58	1520.85	1521.06	1521.17	1521.27	1521.33	1521.42	1521.51	1521.62	1521.71	1521.87	1522.07	1522.13	1522.27	1522.34	1522.42	1522.5	1522.54	1522.58	1522.53	1522.56	1522.7	1522.82	1522.93	1523.02	1523.09	1523.24	1523.29	1523.34	1523.34	1523.39	1523.43	1523.45	1523.46	1523.48	1523.51	1523.51	1523.56	1523.63	1523.71	1523.89	1523.98	1524.12	1524.25	1524.44	1524.56	1524.75	1524.83	1524.92	1525.08	1525.19	1525.34	1525.5	1525.6	1525.76	1525.87	1526.01	1526.06	1526.2	1526.4	1526.51	1526.66	1526.93	1527.16	1527.43	1527.79	1528.22	1528.63	1528.82	1528.99	1529.18	1529.35	1529.5	1529.63	1529.79	1529.98	1530.15	1530.21	1530.39	1530.45	1530.6	1530.62	1530.75	1530.88	1530.92	1530.98	1531.05	1531.14	1531.23	1531.22	1531.17	1531.14	1531.14	1531.17	1531.05	1530.87	1530.78	1530.77	1530.78	1530.89	1531.01	1531.05	1530.99	1531.12	1531.09	1531.26	1531.31	1531.2	1531.19	1531.14	1531.18	1531.21	1531.47	1531.59	1531.43	1531.47	1531.48	1531.43	1531.51	1531.58	1531.67	1531.73	1531.81	1531.91	1531.97	1532.13	1532.4	1532.58	1532.7	1532.68	1532.65	1532.73	1532.76	1532.84	1532.97	1533.1	1533.14	1533.23	1533.3	1533.45	1533.56	1533.6	1533.65	1533.7	1533.75	1533.64	1533.69	1533.65	1533.75	1533.7	1533.7	1533.7	1533.6	1533.52	1533.41	1533.32	1533.38	1533.31	1533.02	1532.59	1532	1531.74	1531.68	1531.8	1531.69	1531.42	1531.25	1531.23	1531.15	1530.86	1530.68	1530.57	1530.54	1530.53	1530.54	1530.54	1530.49	1530.4	1530.33	1530.31	1530.27	1530.2	1530.09	1529.99	1529.92	1529.91	1529.84	1529.8	1529.83	1529.79	1529.78	1529.75	1529.73	1529.63	1529.53	1529.44	1529.28	1529.18	1529.08	1528.93	1528.81	1528.62	1528.44	1528.21	1528.1	1527.95	1527.8	1527.66	1527.51	1527.36	1527.23	1527.09	1526.94	1526.85	1526.68	1526.53	1526.33	1526.18	1525.93	1525.72	1525.53	1525.36	1525.19	1524.95	1524.75	1524.62	1524.53
1508.7	1508.74	1508.78	1508.84	1508.89	1508.94	1509.03	1509.1	1509.2	1509.27	1509.37	1509.39	1509.46	1509.51	1509.61	1509.69	1509.87	1510.09	1510.4	1510.61	1510.87	1510.95	1511.1	1511.22	1511.34	1511.46	1511.71	1511.73	1511.73	1511.67	1511.71	1511.84	1512.01	1512.26	1512.52	1512.68	1512.83	1513.06	1513.35	1513.66	1513.85	1514.02	1514.31	1514.49	1514.75	1514.93	1515.11	1515.32	1515.56	1515.69	1515.81	1515.92	1515.96	1516	1516.09	1516.19	1516.28	1516.41	1516.54	1516.58	1516.76	1516.9	1516.97	1517.06	1517.15	1517.13	1517.32	1517.33	1517.42	1517.39	1517.48	1517.55	1517.69	1517.69	1517.75	1517.99	1518.18	1518.47	1518.58	1518.74	1518.93	1519.2	1519.58	1519.85	1520.14	1520.33	1520.51	1520.71	1520.83	1520.94	1520.99	1520.99	1521.03	1521.08	1521.14	1521.12	1521.12	1521.06	1521.01	1520.95	1520.9	1520.85	1520.79	1520.79	1520.83	1520.88	1520.93	1521	1521.11	1521.2	1521.27	1521.36	1521.42	1521.44	1521.42	1521.38	1521.33	1521.22	1521.12	1520.97	1520.82	1520.63	1520.48	1520.4	1520.3	1520.25	1520.2	1520.11	1520.07	1520.17	1520.16	1520.18	1520.16	1520.16	1520.17	1520.13	1520.07	1519.99	1519.92	1519.86	1519.82	1519.79	1519.78	1519.72	1519.72	1519.81	1519.79	1519.8	1519.94	1520.05	1520.15	1520.35	1520.66	1520.91	1521.13	1521.33	1521.39	1521.44	1521.52	1521.64	1521.7	1521.81	1521.93	1522.13	1522.21	1522.35	1522.43	1522.54	1522.65	1522.7	1522.74	1522.75	1522.73	1522.78	1522.92	1523.01	1523.06	1523.19	1523.31	1523.32	1523.38	1523.41	1523.45	1523.49	1523.47	1523.51	1523.5	1523.56	1523.57	1523.65	1523.75	1523.85	1523.96	1524.05	1524.15	1524.31	1524.35	1524.45	1524.61	1524.83	1524.92	1525.05	1525.2	1525.36	1525.48	1525.57	1525.71	1525.89	1525.95	1526.05	1526.18	1526.31	1526.44	1526.62	1526.81	1526.99	1527.29	1527.69	1528.18	1528.53	1528.7	1528.85	1529.02	1529.15	1529.31	1529.48	1529.63	1529.78	1529.96	1530.06	1530.2	1530.31	1530.33	1530.46	1530.55	1530.7	1530.69	1530.86	1530.79	1530.8	1530.79	1530.82	1530.83	1530.8	1530.77	1530.77	1530.66	1530.63	1530.5	1530.5	1530.53	1530.64	1530.88	1530.85	1530.77	1530.8	1530.97	1531.19	1531.37	1531.25	1531.1	1531.12	1531.13	1531.12	1531.48	1531.73	1531.61	1531.45	1531.42	1531.45	1531.48	1531.63	1531.63	1531.73	1531.8	1531.86	1532.05	1532.21	1532.33	1532.48	1532.72	1532.64	1532.51	1532.55	1532.69	1532.73	1532.81	1532.98	1533.15	1533.22	1533.33	1533.42	1533.52	1533.65	1533.7	1533.75	1533.8	1533.72	1533.82	1533.63	1533.65	1533.56	1533.62	1533.76	1533.54	1533.47	1533.42	1533.38	1533.35	1533.25	1533.13	1532.88	1532.42	1531.88	1531.62	1531.6	1531.6	1531.31	1531.24	1531.1	1530.97	1530.72	1530.56	1530.52	1530.48	1530.45	1530.51	1530.56	1530.45	1530.38	1530.3	1530.25	1530.16	1530.08	1529.99	1529.95	1529.87	1529.82	1529.81	1529.76	1529.76	1529.74	1529.74	1529.7	1529.66	1529.6	1529.51	1529.38	1529.24	1529.13	1529.03	1528.92	1528.79	1528.61	1528.42	1528.24	1528.11	1527.99	1527.8	1527.66	1527.52	1527.37	1527.24	1527.11	1526.99	1526.88	1526.72	1526.57	1526.39	1526.15	1525.93	1525.74	1525.58	1525.39	1525.22	1525.03	1524.86	1524.72	1524.6
1508.73	1508.71	1508.76	1508.83	1508.86	1508.95	1509.09	1509.12	1509.16	1509.23	1509.29	1509.41	1509.48	1509.59	1509.62	1509.72	1509.84	1510.1	1510.49	1510.71	1510.78	1510.95	1511.08	1511.28	1511.39	1511.54	1511.6	1511.61	1511.66	1511.65	1511.78	1511.81	1512	1512.24	1512.41	1512.7	1512.89	1513.17	1513.28	1513.57	1513.77	1514.14	1514.26	1514.41	1514.62	1514.89	1515.05	1515.3	1515.42	1515.58	1515.73	1515.82	1515.88	1516.03	1516.08	1516.13	1516.23	1516.33	1516.44	1516.48	1516.69	1516.72	1516.89	1517.03	1517.13	1517.19	1517.25	1517.32	1517.36	1517.39	1517.47	1517.5	1517.58	1517.6	1517.67	1517.93	1518.16	1518.38	1518.5	1518.64	1518.85	1519.19	1519.43	1519.67	1519.94	1520.28	1520.47	1520.63	1520.73	1520.82	1520.9	1520.97	1520.96	1521.02	1521.05	1521.05	1521.03	1520.98	1520.93	1520.9	1520.83	1520.81	1520.71	1520.67	1520.62	1520.71	1520.77	1520.89	1520.91	1521	1521.05	1521.18	1521.22	1521.23	1521.16	1521.12	1521.04	1520.94	1520.87	1520.73	1520.58	1520.5	1520.34	1520.26	1520.19	1520.13	1520.11	1520.09	1520.11	1520.16	1520.17	1520.14	1520.18	1520.16	1520.1	1520.08	1520.04	1519.98	1519.88	1519.85	1519.83	1519.75	1519.71	1519.78	1519.74	1519.7	1519.78	1519.82	1519.91	1520	1520.18	1520.43	1520.71	1520.94	1521.16	1521.34	1521.38	1521.49	1521.57	1521.67	1521.76	1521.88	1521.99	1522.12	1522.24	1522.41	1522.52	1522.68	1522.79	1522.86	1522.89	1522.9	1522.86	1522.83	1522.93	1523.04	1523.14	1523.25	1523.32	1523.35	1523.49	1523.49	1523.55	1523.53	1523.54	1523.53	1523.58	1523.65	1523.68	1523.76	1523.87	1523.94	1524.04	1524.15	1524.25	1524.3	1524.44	1524.44	1524.58	1524.81	1524.88	1525.07	1525.19	1525.3	1525.46	1525.58	1525.7	1525.83	1525.94	1526.04	1526.17	1526.31	1526.44	1526.59	1526.76	1526.95	1527.28	1527.73	1528.04	1528.33	1528.61	1528.73	1528.86	1528.98	1529.19	1529.32	1529.48	1529.65	1529.81	1529.89	1530	1530.09	1530.19	1530.27	1530.36	1530.47	1530.54	1530.58	1530.5	1530.48	1530.54	1530.52	1530.51	1530.45	1530.44	1530.48	1530.46	1530.41	1530.34	1530.28	1530.33	1530.48	1530.66	1530.68	1530.64	1530.88	1531.11	1531.09	1531.12	1531.04	1531.04	1530.97	1531.01	1531.07	1531.35	1531.76	1531.8	1531.49	1531.35	1531.38	1531.39	1531.53	1531.58	1531.75	1531.86	1531.8	1532.05	1532.18	1532.28	1532.41	1532.51	1532.61	1532.67	1532.6	1532.59	1532.65	1532.69	1532.87	1533.04	1533.22	1533.32	1533.42	1533.53	1533.77	1533.73	1533.76	1533.78	1533.79	1533.78	1533.58	1533.62	1533.57	1533.68	1533.67	1533.6	1533.43	1533.43	1533.35	1533.3	1533.18	1533.01	1532.8	1532.57	1532.21	1531.83	1531.55	1531.39	1531.4	1531.25	1531.03	1530.81	1530.6	1530.5	1530.45	1530.42	1530.45	1530.49	1530.59	1530.4	1530.28	1530.26	1530.17	1530.11	1530.02	1529.88	1529.79	1529.78	1529.72	1529.7	1529.66	1529.67	1529.61	1529.64	1529.61	1529.57	1529.53	1529.44	1529.33	1529.21	1529.06	1528.96	1528.85	1528.75	1528.63	1528.41	1528.23	1528.09	1527.93	1527.78	1527.64	1527.55	1527.39	1527.25	1527.1	1526.99	1526.88	1526.72	1526.57	1526.4	1526.2	1525.93	1525.77	1525.62	1525.44	1525.25	1525.1	1524.91	1524.8	1524.65
1508.71	1508.77	1508.78	1508.87	1508.88	1508.98	1509.06	1509.12	1509.17	1509.3	1509.35	1509.4	1509.48	1509.62	1509.69	1509.82	1509.9	1509.94	1510.14	1510.49	1510.75	1510.94	1511.17	1511.17	1511.36	1511.53	1511.57	1511.59	1511.57	1511.59	1511.7	1511.8	1512.1	1512.31	1512.45	1512.62	1512.91	1513.09	1513.29	1513.48	1513.7	1513.91	1514.13	1514.27	1514.53	1514.63	1514.91	1515.09	1515.37	1515.52	1515.67	1515.66	1515.79	1515.96	1516.05	1516.09	1516.2	1516.27	1516.36	1516.38	1516.46	1516.68	1516.79	1516.88	1517	1517.08	1517.2	1517.28	1517.36	1517.39	1517.39	1517.31	1517.47	1517.49	1517.62	1517.74	1518.04	1518.28	1518.5	1518.64	1518.8	1519.05	1519.36	1519.63	1519.89	1520.08	1520.31	1520.43	1520.61	1520.75	1520.86	1520.9	1520.92	1520.96	1520.99	1521	1520.96	1520.89	1520.89	1520.88	1520.78	1520.68	1520.62	1520.58	1520.56	1520.61	1520.65	1520.76	1520.8	1520.73	1520.81	1520.92	1520.97	1520.95	1520.89	1520.81	1520.73	1520.65	1520.57	1520.51	1520.39	1520.34	1520.23	1520.21	1520.16	1520.13	1520.11	1520.11	1520.14	1520.14	1520.13	1520.12	1520.12	1520.1	1520.07	1520.01	1520.01	1519.91	1519.78	1519.79	1519.76	1519.78	1519.79	1519.71	1519.72	1519.74	1519.75	1519.84	1519.89	1519.99	1520.2	1520.53	1520.75	1520.95	1521.16	1521.33	1521.42	1521.48	1521.57	1521.65	1521.8	1521.92	1522.06	1522.17	1522.4	1522.57	1522.71	1522.86	1522.97	1523.05	1523.07	1523.08	1523.05	1523	1523.03	1523.12	1523.21	1523.31	1523.35	1523.44	1523.52	1523.56	1523.6	1523.62	1523.61	1523.61	1523.7	1523.79	1523.86	1523.9	1523.97	1524.05	1524.09	1524.19	1524.35	1524.38	1524.39	1524.41	1524.49	1524.69	1524.83	1524.96	1525.13	1525.26	1525.45	1525.57	1525.64	1525.78	1525.93	1526.03	1526.19	1526.31	1526.39	1526.54	1526.64	1526.86	1527.14	1527.61	1527.92	1528.21	1528.41	1528.63	1528.71	1528.9	1529.05	1529.2	1529.4	1529.57	1529.65	1529.73	1529.8	1529.9	1530	1530.09	1530.18	1530.31	1530.31	1530.28	1530.32	1530.26	1530.22	1530.2	1530.2	1530.18	1530.2	1530.22	1530.27	1530.23	1530.25	1530.27	1530.23	1530.4	1530.47	1530.51	1530.51	1530.71	1530.81	1530.87	1530.88	1530.88	1530.94	1530.92	1531.01	1531.03	1531.09	1531.38	1531.59	1531.39	1531.28	1531.29	1531.29	1531.36	1531.58	1531.8	1531.82	1531.68	1531.79	1532.13	1532.34	1532.38	1532.4	1532.35	1532.43	1532.48	1532.59	1532.52	1532.58	1532.76	1532.99	1533.17	1533.32	1533.44	1533.56	1533.67	1533.76	1533.95	1533.84	1533.79	1533.7	1533.56	1533.7	1533.57	1533.57	1533.57	1533.67	1533.53	1533.36	1533.27	1533.18	1533.14	1532.97	1532.78	1532.47	1532.16	1531.88	1531.58	1531.36	1531.24	1531.16	1530.86	1530.66	1530.51	1530.5	1530.37	1530.36	1530.43	1530.5	1530.49	1530.39	1530.22	1530.19	1530.1	1529.97	1529.88	1529.73	1529.67	1529.64	1529.6	1529.57	1529.53	1529.5	1529.5	1529.49	1529.43	1529.46	1529.41	1529.35	1529.25	1529.13	1529.03	1528.89	1528.79	1528.68	1528.55	1528.39	1528.25	1528.12	1527.91	1527.81	1527.68	1527.58	1527.4	1527.27	1527.09	1527	1526.85	1526.73	1526.58	1526.44	1526.21	1525.98	1525.85	1525.6	1525.45	1525.29	1525.14	1524.96	1524.8	1524.68
1508.69	1508.81	1508.81	1508.84	1508.89	1508.97	1509.04	1509.12	1509.19	1509.29	1509.32	1509.45	1509.56	1509.62	1509.71	1509.79	1509.9	1509.99	1510.1	1510.22	1510.51	1510.76	1510.98	1511.19	1511.41	1511.47	1511.51	1511.56	1511.51	1511.61	1511.72	1511.92	1512.14	1512.3	1512.44	1512.59	1512.89	1513	1513.19	1513.46	1513.65	1513.7	1513.8	1513.92	1514.03	1514.27	1514.57	1514.81	1515.16	1515.34	1515.47	1515.54	1515.71	1515.87	1515.96	1515.99	1516.12	1516.17	1516.28	1516.34	1516.44	1516.53	1516.64	1516.81	1516.89	1517.03	1517.2	1517.15	1517.14	1517.29	1517.31	1517.4	1517.35	1517.5	1517.55	1517.67	1517.84	1518.13	1518.34	1518.6	1518.79	1519.01	1519.18	1519.4	1519.67	1520.01	1520.19	1520.35	1520.48	1520.61	1520.77	1520.8	1520.85	1520.9	1520.93	1520.89	1520.88	1520.8	1520.86	1520.74	1520.72	1520.63	1520.56	1520.48	1520.47	1520.52	1520.52	1520.59	1520.57	1520.37	1520.38	1520.61	1520.66	1520.65	1520.6	1520.56	1520.42	1520.39	1520.35	1520.26	1520.26	1520.18	1520.12	1520.11	1520.06	1520.11	1520.15	1520.11	1520.11	1520.07	1520.07	1520.05	1520.03	1520	1519.98	1519.99	1519.99	1519.84	1519.8	1519.87	1519.81	1519.78	1519.8	1519.81	1519.77	1519.77	1519.8	1519.85	1519.96	1520.06	1520.3	1520.59	1520.8	1520.96	1521.19	1521.33	1521.43	1521.57	1521.66	1521.73	1521.85	1521.98	1522.14	1522.37	1522.59	1522.81	1522.95	1523.1	1523.15	1523.15	1523.17	1523.26	1523.31	1523.2	1523.14	1523.26	1523.38	1523.43	1523.42	1523.44	1523.51	1523.61	1523.66	1523.73	1523.74	1523.82	1523.91	1523.98	1523.98	1523.99	1524.03	1524.07	1524.08	1524.17	1524.29	1524.43	1524.4	1524.38	1524.44	1524.61	1524.8	1524.95	1525.13	1525.25	1525.39	1525.52	1525.63	1525.76	1525.9	1526.02	1526.18	1526.32	1526.39	1526.48	1526.62	1526.76	1527	1527.36	1527.78	1528.07	1528.27	1528.45	1528.66	1528.78	1528.92	1529.1	1529.33	1529.42	1529.54	1529.69	1529.71	1529.76	1529.82	1529.92	1530.02	1530.08	1530.04	1530.07	1530.08	1530.09	1530.05	1530.06	1530	1530.01	1530.04	1530.07	1530.1	1530.1	1530.11	1530.16	1530.2	1530.29	1530.38	1530.39	1530.37	1530.5	1530.63	1530.75	1530.67	1530.66	1530.77	1530.84	1530.96	1530.97	1530.96	1531.1	1531.26	1531.23	1531.14	1531.16	1531.27	1531.36	1531.51	1531.73	1531.98	1531.95	1531.78	1532.03	1532.25	1532.35	1532.35	1532.26	1532.36	1532.45	1532.53	1532.68	1532.57	1532.76	1533.03	1533.12	1533.31	1533.54	1533.59	1533.63	1533.75	1533.88	1533.86	1533.83	1533.6	1533.57	1533.64	1533.47	1533.42	1533.41	1533.53	1533.45	1533.28	1533.15	1533.12	1532.96	1532.93	1532.65	1532.41	1532.1	1531.82	1531.62	1531.4	1531.2	1530.96	1530.78	1530.57	1530.53	1530.48	1530.38	1530.31	1530.3	1530.41	1530.37	1530.24	1530.16	1530.11	1529.96	1529.89	1529.75	1529.62	1529.56	1529.54	1529.52	1529.43	1529.37	1529.35	1529.34	1529.31	1529.28	1529.33	1529.33	1529.27	1529.16	1529.06	1528.96	1528.85	1528.73	1528.63	1528.49	1528.36	1528.21	1528.1	1527.97	1527.83	1527.68	1527.55	1527.39	1527.24	1527.1	1527.02	1526.82	1526.72	1526.59	1526.42	1526.23	1526.02	1525.82	1525.65	1525.48	1525.33	1525.16	1525	1524.85	1524.68
1508.7	1508.81	1508.82	1508.89	1508.95	1508.95	1509.08	1509.12	1509.26	1509.29	1509.39	1509.44	1509.53	1509.61	1509.77	1509.83	1509.92	1510.03	1510.12	1510.22	1510.4	1510.68	1510.9	1511.09	1511.27	1511.38	1511.45	1511.46	1511.48	1511.63	1511.77	1512.03	1512.21	1512.35	1512.49	1512.53	1512.69	1512.94	1513.1	1513.28	1513.35	1513.43	1513.46	1513.63	1513.67	1513.85	1514.04	1514.36	1514.78	1515.16	1515.29	1515.37	1515.58	1515.7	1515.81	1515.95	1515.98	1516.05	1516.12	1516.19	1516.31	1516.43	1516.52	1516.63	1516.7	1516.92	1516.98	1517.12	1517.16	1517.19	1517.22	1517.27	1517.26	1517.38	1517.37	1517.58	1517.78	1518	1518.31	1518.62	1518.76	1518.87	1519.1	1519.4	1519.63	1519.88	1520.04	1520.25	1520.36	1520.57	1520.66	1520.72	1520.76	1520.76	1520.77	1520.76	1520.77	1520.73	1520.73	1520.67	1520.6	1520.54	1520.47	1520.41	1520.41	1520.36	1520.42	1520.47	1520.42	1520.18	1520.22	1520.35	1520.31	1520.38	1520.3	1520.29	1520.19	1520.17	1520.12	1520.15	1520.1	1520.11	1520.04	1520.03	1520.03	1520.05	1520.09	1520.08	1520.07	1520.04	1520.05	1520.02	1519.98	1519.97	1519.96	1520.02	1520.02	1519.93	1519.98	1519.92	1519.8	1519.79	1519.81	1519.82	1519.8	1519.79	1519.84	1519.97	1520.11	1520.23	1520.4	1520.63	1520.82	1521.01	1521.26	1521.45	1521.61	1521.72	1521.79	1521.85	1521.94	1522.08	1522.29	1522.54	1522.8	1522.98	1523.17	1523.3	1523.33	1523.29	1523.31	1523.35	1523.49	1523.41	1523.36	1523.39	1523.51	1523.56	1523.51	1523.5	1523.53	1523.58	1523.69	1523.82	1523.92	1523.98	1524.02	1524.13	1524.15	1524.1	1524.06	1524.08	1524.09	1524.16	1524.21	1524.26	1524.37	1524.36	1524.45	1524.54	1524.74	1524.98	1525.15	1525.27	1525.4	1525.54	1525.62	1525.75	1525.9	1526.01	1526.17	1526.29	1526.36	1526.48	1526.6	1526.76	1526.9	1527.17	1527.58	1527.94	1528.12	1528.3	1528.51	1528.7	1528.83	1528.97	1529.2	1529.34	1529.39	1529.55	1529.64	1529.66	1529.77	1529.8	1529.78	1529.84	1529.87	1529.9	1529.94	1529.94	1529.97	1530.01	1529.94	1529.89	1529.89	1529.9	1529.91	1529.98	1530	1530.05	1530.11	1530.17	1530.26	1530.33	1530.32	1530.36	1530.47	1530.55	1530.52	1530.56	1530.66	1530.74	1530.87	1530.94	1530.91	1530.94	1531.06	1531.13	1531.15	1531.13	1531.24	1531.36	1531.5	1531.61	1531.73	1531.89	1531.96	1532.01	1532.23	1532.31	1532.33	1532.36	1532.49	1532.7	1532.64	1532.52	1532.6	1532.76	1532.93	1533.08	1533.22	1533.44	1533.53	1533.51	1533.65	1533.76	1533.78	1533.61	1533.55	1533.66	1533.64	1533.56	1533.45	1533.36	1533.53	1533.45	1533.14	1533	1532.92	1532.88	1532.71	1532.53	1532.27	1532.15	1531.94	1531.72	1531.51	1531.23	1530.97	1530.75	1530.55	1530.52	1530.41	1530.3	1530.19	1530.16	1530.28	1530.29	1530.18	1530.1	1529.97	1529.82	1529.73	1529.64	1529.56	1529.46	1529.44	1529.4	1529.29	1529.22	1529.19	1529.17	1529.14	1529.12	1529.16	1529.17	1529.18	1529.07	1528.99	1528.89	1528.77	1528.64	1528.53	1528.38	1528.3	1528.19	1528.01	1527.97	1527.82	1527.69	1527.53	1527.37	1527.23	1527.09	1526.92	1526.82	1526.74	1526.64	1526.46	1526.26	1526.08	1525.85	1525.7	1525.5	1525.33	1525.19	1525.04	1524.88	1524.73
1508.79	1508.81	1508.81	1508.86	1508.95	1508.97	1509.09	1509.14	1509.21	1509.38	1509.45	1509.62	1509.6	1509.68	1509.77	1509.86	1509.99	1510.1	1510.14	1510.23	1510.34	1510.52	1510.83	1511.1	1511.25	1511.27	1511.34	1511.42	1511.56	1511.67	1511.84	1512.01	1512.25	1512.34	1512.45	1512.55	1512.59	1512.76	1512.89	1513.07	1513.17	1513.13	1513.07	1513.22	1513.42	1513.59	1513.76	1514	1514.47	1514.92	1515.11	1515.29	1515.47	1515.55	1515.66	1515.78	1515.92	1515.93	1515.99	1516.13	1516.1	1516.24	1516.35	1516.55	1516.68	1516.79	1516.87	1517	1517.09	1517.07	1517.07	1517.12	1517.16	1517.16	1517.37	1517.52	1517.63	1517.96	1518.27	1518.48	1518.69	1518.85	1519.01	1519.17	1519.52	1519.82	1520	1520.11	1520.29	1520.42	1520.56	1520.63	1520.7	1520.66	1520.65	1520.63	1520.55	1520.58	1520.57	1520.57	1520.53	1520.46	1520.37	1520.31	1520.28	1520.19	1520.24	1520.25	1520.16	1520.13	1520.12	1520.14	1520.07	1520.05	1520.07	1520.11	1520.07	1520.1	1520.06	1520.06	1520	1520.04	1519.99	1520.02	1520	1520.03	1520.06	1520.04	1520.09	1520.04	1520.04	1520	1519.98	1520	1520.02	1520.08	1520.09	1520.03	1519.97	1519.87	1519.81	1519.8	1519.82	1519.86	1519.88	1519.94	1520.01	1520.12	1520.25	1520.29	1520.46	1520.68	1520.91	1521.14	1521.4	1521.63	1521.77	1521.84	1521.9	1521.96	1522.08	1522.2	1522.42	1522.67	1522.89	1523.07	1523.27	1523.43	1523.48	1523.45	1523.42	1523.46	1523.52	1523.57	1523.55	1523.52	1523.62	1523.6	1523.57	1523.55	1523.55	1523.6	1523.73	1523.85	1523.97	1524.03	1524.09	1524.22	1524.25	1524.18	1524.11	1524.09	1524.12	1524.15	1524.14	1524.21	1524.3	1524.35	1524.45	1524.6	1524.77	1525	1525.21	1525.3	1525.4	1525.51	1525.66	1525.74	1525.87	1525.98	1526.11	1526.22	1526.39	1526.45	1526.56	1526.69	1526.86	1527.05	1527.39	1527.73	1527.96	1528.16	1528.33	1528.57	1528.85	1528.94	1529.06	1529.19	1529.28	1529.42	1529.52	1529.53	1529.58	1529.62	1529.58	1529.62	1529.69	1529.76	1529.81	1529.82	1529.85	1529.85	1529.85	1529.79	1529.77	1529.81	1529.78	1529.83	1529.88	1529.96	1530.02	1530.07	1530.11	1530.2	1530.17	1530.16	1530.25	1530.31	1530.34	1530.48	1530.55	1530.6	1530.77	1530.81	1530.76	1530.78	1530.94	1530.91	1531.04	1531.19	1531.39	1531.35	1531.38	1531.65	1531.88	1531.9	1532.1	1532.23	1532.42	1532.33	1532.39	1532.47	1532.58	1532.91	1533.17	1532.72	1532.68	1532.98	1533.04	1532.93	1533.09	1533.36	1533.48	1533.55	1533.53	1533.52	1533.47	1533.61	1533.56	1533.68	1533.69	1533.56	1533.41	1533.33	1533.47	1533.38	1533.07	1532.93	1532.84	1532.66	1532.49	1532.38	1532.26	1532.24	1532.07	1531.84	1531.6	1531.24	1530.98	1530.72	1530.63	1530.51	1530.34	1530.2	1530.05	1530.1	1530.27	1530.37	1530.18	1529.99	1529.84	1529.7	1529.62	1529.51	1529.45	1529.4	1529.3	1529.26	1529.21	1529.15	1529.08	1529.04	1528.99	1528.95	1528.96	1528.98	1529.04	1528.96	1528.89	1528.78	1528.7	1528.54	1528.44	1528.33	1528.23	1528.15	1528.02	1527.93	1527.78	1527.66	1527.53	1527.35	1527.23	1527.07	1526.93	1526.83	1526.78	1526.64	1526.49	1526.28	1526.1	1525.95	1525.77	1525.56	1525.37	1525.25	1525.13	1524.97	1524.79
1508.76	1508.8	1508.82	1508.92	1508.94	1508.96	1509.07	1509.23	1509.43	1509.87	1509.88	1510.08	1510.22	1510.17	1510.07	1509.91	1509.98	1510.07	1510.24	1510.38	1510.45	1510.52	1510.65	1510.91	1511.09	1511.33	1511.43	1511.47	1511.54	1511.67	1511.93	1512.08	1512.25	1512.27	1512.4	1512.48	1512.59	1512.69	1512.77	1512.79	1512.77	1512.83	1512.92	1513.03	1513.14	1513.24	1513.38	1513.64	1514.13	1514.55	1514.75	1515	1515.24	1515.36	1515.53	1515.6	1515.71	1515.8	1515.84	1515.92	1515.96	1516.05	1516.27	1516.41	1516.59	1516.66	1516.84	1516.83	1516.89	1516.93	1516.97	1516.97	1517.14	1517.21	1517.22	1517.32	1517.49	1517.8	1518.11	1518.33	1518.62	1518.8	1518.94	1519.15	1519.36	1519.71	1519.87	1520.05	1520.22	1520.35	1520.44	1520.46	1520.51	1520.49	1520.46	1520.44	1520.38	1520.4	1520.41	1520.41	1520.39	1520.36	1520.31	1520.23	1520.17	1520.08	1520.05	1520	1520.08	1520.01	1519.97	1519.96	1519.91	1519.86	1519.9	1519.96	1519.97	1519.98	1519.97	1519.99	1519.97	1520	1520.01	1520.02	1520	1520	1520.05	1520.03	1520.05	1520.06	1520.02	1520.01	1520	1520.05	1520.08	1520.04	1520.01	1519.93	1519.86	1519.83	1519.81	1519.82	1519.87	1519.96	1520.01	1520.07	1520.17	1520.22	1520.28	1520.38	1520.56	1520.77	1521.01	1521.27	1521.52	1521.75	1521.85	1521.95	1522.04	1522.12	1522.2	1522.33	1522.49	1522.72	1522.91	1523.08	1523.32	1523.46	1523.49	1523.52	1523.53	1523.56	1523.6	1523.65	1523.64	1523.66	1523.69	1523.64	1523.61	1523.6	1523.6	1523.62	1523.68	1523.86	1524	1524.02	1524.08	1524.21	1524.32	1524.29	1524.18	1524.1	1524.08	1524.12	1524.14	1524.19	1524.25	1524.35	1524.47	1524.69	1524.78	1524.98	1525.24	1525.3	1525.4	1525.52	1525.63	1525.74	1525.82	1525.93	1526.07	1526.2	1526.34	1526.48	1526.52	1526.67	1526.81	1526.97	1527.19	1527.53	1527.79	1527.96	1528.13	1528.35	1528.59	1528.77	1528.92	1529.07	1529.19	1529.27	1529.36	1529.42	1529.44	1529.44	1529.41	1529.47	1529.54	1529.64	1529.63	1529.7	1529.72	1529.76	1529.75	1529.77	1529.74	1529.7	1529.7	1529.71	1529.77	1529.84	1529.92	1529.97	1530.06	1530.12	1530.05	1530.04	1529.99	1530.07	1530.24	1530.35	1530.38	1530.5	1530.62	1530.57	1530.52	1530.62	1530.79	1530.8	1530.97	1531.25	1531.44	1531.36	1531.38	1531.65	1532.01	1532.03	1532.25	1532.35	1532.52	1532.55	1532.57	1532.62	1532.64	1532.62	1532.7	1532.59	1532.68	1532.81	1532.99	1533.09	1532.93	1533.23	1533.34	1533.37	1533.32	1533.32	1533.44	1533.48	1533.41	1533.55	1533.52	1533.42	1533.27	1533.27	1533.23	1533.12	1532.96	1532.88	1532.88	1532.43	1532.33	1532.34	1532.16	1532.02	1531.86	1531.67	1531.43	1531.21	1530.99	1530.8	1530.66	1530.44	1530.26	1530.1	1530	1530.06	1530.15	1530.2	1530.03	1529.89	1529.71	1529.62	1529.47	1529.37	1529.31	1529.25	1529.21	1529.15	1529.08	1529.06	1528.95	1528.87	1528.81	1528.78	1528.8	1528.82	1528.83	1528.84	1528.75	1528.69	1528.58	1528.52	1528.38	1528.26	1528.17	1528.09	1527.98	1527.87	1527.77	1527.64	1527.53	1527.37	1527.2	1527.06	1526.92	1526.86	1526.76	1526.63	1526.45	1526.26	1526.11	1525.97	1525.83	1525.63	1525.47	1525.28	1525.19	1525.04	1524.92
1508.78	1508.77	1508.82	1508.89	1508.99	1509.03	1509.13	1509.46	1509.83	1510.14	1510.29	1510.41	1510.6	1510.58	1510.61	1510.5	1510.25	1510.15	1510.3	1510.39	1510.47	1510.59	1510.76	1510.87	1511.11	1511.32	1511.4	1511.47	1511.67	1511.9	1511.94	1512.11	1512.24	1512.32	1512.42	1512.51	1512.52	1512.65	1512.65	1512.65	1512.7	1512.73	1512.74	1512.86	1512.91	1513.08	1513.15	1513.51	1513.78	1514.22	1514.56	1514.78	1514.9	1515.12	1515.3	1515.47	1515.5	1515.63	1515.69	1515.73	1515.76	1515.95	1516.09	1516.31	1516.41	1516.53	1516.61	1516.73	1516.81	1516.8	1516.81	1516.94	1517.02	1517.13	1517.26	1517.33	1517.48	1517.69	1517.95	1518.29	1518.55	1518.73	1518.88	1519.05	1519.28	1519.53	1519.76	1519.92	1520.08	1520.21	1520.31	1520.33	1520.31	1520.28	1520.23	1520.17	1520.15	1520.17	1520.17	1520.18	1520.19	1520.17	1520.23	1520.11	1520.02	1520	1519.96	1519.88	1519.84	1519.84	1519.79	1519.75	1519.75	1519.78	1519.84	1519.88	1519.84	1519.93	1519.91	1519.95	1519.96	1519.96	1520.01	1520.04	1520.02	1519.96	1519.97	1520.01	1520.04	1520.04	1520.03	1520.03	1519.98	1520.01	1519.98	1519.9	1519.84	1519.82	1519.85	1519.85	1519.87	1519.9	1519.95	1519.98	1520.05	1520.14	1520.2	1520.27	1520.35	1520.5	1520.68	1520.91	1521.13	1521.4	1521.65	1521.84	1521.97	1522.06	1522.16	1522.26	1522.36	1522.49	1522.61	1522.76	1522.93	1523.08	1523.27	1523.45	1523.54	1523.55	1523.63	1523.63	1523.71	1523.75	1523.75	1523.8	1523.69	1523.67	1523.66	1523.65	1523.67	1523.68	1523.72	1523.83	1523.89	1524	1524.09	1524.23	1524.28	1524.25	1524.24	1524.16	1524.11	1524.12	1524.15	1524.18	1524.24	1524.34	1524.49	1524.66	1524.81	1524.96	1525.2	1525.28	1525.41	1525.55	1525.66	1525.73	1525.8	1525.93	1526.08	1526.15	1526.25	1526.38	1526.52	1526.63	1526.76	1526.89	1527.06	1527.3	1527.53	1527.73	1527.91	1528.04	1528.26	1528.47	1528.67	1528.82	1528.99	1529.08	1529.1	1529.16	1529.15	1529.19	1529.17	1529.21	1529.3	1529.39	1529.47	1529.52	1529.59	1529.68	1529.66	1529.72	1529.71	1529.7	1529.7	1529.68	1529.69	1529.74	1529.81	1529.83	1529.93	1530.09	1530.04	1529.91	1529.86	1529.89	1530.04	1530.11	1530.12	1530.21	1530.35	1530.27	1530.29	1530.43	1530.65	1530.77	1530.96	1531.25	1531.25	1531.36	1531.56	1531.9	1532.19	1532.2	1532.38	1532.52	1532.57	1532.7	1532.89	1532.89	1532.82	1532.56	1532.57	1532.6	1532.87	1533.06	1532.97	1533.06	1532.9	1533.05	1533.18	1533.16	1533.24	1533.38	1533.43	1533.45	1533.49	1533.4	1533.43	1533.27	1533.25	1533.13	1533.03	1532.98	1532.89	1532.93	1532.85	1532.5	1532.29	1532.32	1532	1531.77	1531.57	1531.4	1531.27	1531.16	1530.94	1530.92	1530.79	1530.52	1530.23	1530	1529.9	1529.9	1529.99	1529.96	1529.92	1529.74	1529.56	1529.4	1529.29	1529.2	1529.16	1529.14	1529.08	1529.03	1528.93	1528.88	1528.81	1528.74	1528.72	1528.66	1528.64	1528.67	1528.64	1528.71	1528.67	1528.6	1528.47	1528.4	1528.28	1528.18	1528.05	1527.99	1527.88	1527.8	1527.71	1527.58	1527.49	1527.32	1527.16	1527.03	1526.88	1526.79	1526.73	1526.59	1526.45	1526.31	1526.11	1525.98	1525.84	1525.66	1525.49	1525.34	1525.21	1525.07	1525.02
1508.77	1508.79	1508.87	1508.92	1508.96	1509.05	1509.28	1509.88	1510.22	1510.4	1510.53	1510.7	1510.79	1510.81	1510.85	1510.89	1510.84	1510.62	1510.38	1510.51	1510.66	1510.68	1510.82	1510.94	1511.15	1511.34	1511.42	1511.53	1511.63	1511.85	1512.04	1512.14	1512.22	1512.3	1512.36	1512.5	1512.5	1512.66	1512.64	1512.55	1512.6	1512.72	1512.72	1512.87	1512.95	1513	1513.05	1513.28	1513.57	1513.95	1514.26	1514.55	1514.78	1514.93	1515.12	1515.27	1515.34	1515.39	1515.5	1515.6	1515.58	1515.69	1515.83	1516.07	1516.25	1516.41	1516.51	1516.59	1516.69	1516.71	1516.71	1516.83	1517.06	1517.08	1517.22	1517.28	1517.38	1517.69	1517.94	1518.19	1518.44	1518.62	1518.91	1519.06	1519.2	1519.39	1519.64	1519.77	1519.87	1520.04	1520.08	1520.11	1520.07	1520.02	1519.97	1519.9	1519.88	1519.87	1519.88	1519.9	1519.94	1519.91	1520.02	1519.96	1519.86	1519.81	1519.77	1519.74	1519.66	1519.64	1519.63	1519.7	1519.66	1519.72	1519.76	1519.81	1519.84	1519.86	1519.91	1519.95	1519.97	1520	1520.01	1520	1520.02	1519.98	1519.99	1520.02	1520.03	1520.03	1519.98	1519.98	1519.99	1519.91	1519.78	1519.82	1519.83	1519.82	1519.89	1519.89	1519.88	1519.94	1519.97	1520.02	1520.03	1520.14	1520.17	1520.29	1520.4	1520.58	1520.8	1521.07	1521.29	1521.54	1521.78	1521.95	1522.09	1522.18	1522.29	1522.43	1522.54	1522.65	1522.8	1522.95	1523	1523.14	1523.3	1523.42	1523.53	1523.6	1523.67	1523.72	1523.77	1523.83	1523.86	1523.89	1523.77	1523.7	1523.72	1523.72	1523.74	1523.78	1523.8	1523.83	1523.87	1523.97	1524.07	1524.2	1524.24	1524.3	1524.24	1524.18	1524.14	1524.16	1524.18	1524.2	1524.25	1524.31	1524.44	1524.62	1524.86	1525.01	1525.14	1525.28	1525.43	1525.57	1525.68	1525.77	1525.83	1525.87	1525.97	1526.1	1526.25	1526.35	1526.51	1526.56	1526.73	1526.92	1527.04	1527.17	1527.39	1527.57	1527.77	1527.87	1528.02	1528.18	1528.34	1528.56	1528.7	1528.86	1528.77	1528.85	1528.95	1528.91	1528.91	1528.99	1529.12	1529.21	1529.22	1529.3	1529.39	1529.48	1529.56	1529.6	1529.66	1529.68	1529.75	1529.72	1529.71	1529.7	1529.7	1529.77	1529.82	1529.93	1530.05	1529.84	1529.85	1529.82	1529.93	1529.97	1530.09	1530.07	1530.1	1530.09	1530.16	1530.27	1530.68	1530.78	1530.88	1531.06	1531.08	1531.31	1531.69	1532.13	1532.15	1532.19	1532.33	1532.57	1532.71	1532.81	1533.01	1532.96	1532.87	1532.69	1532.65	1532.69	1532.98	1533.36	1533.11	1532.98	1532.96	1533.04	1533.22	1533.23	1533.23	1533.29	1533.33	1533.28	1533.38	1533.29	1533.2	1533.16	1533.12	1533.04	1532.95	1532.94	1532.93	1532.94	1532.77	1532.5	1532.19	1532.21	1531.84	1531.5	1531.39	1531.3	1531.25	1531.11	1531	1530.92	1530.86	1530.52	1530.24	1529.98	1529.79	1529.76	1529.77	1529.78	1529.73	1529.56	1529.32	1529.2	1529.06	1528.99	1528.96	1528.92	1528.89	1528.81	1528.8	1528.73	1528.66	1528.63	1528.54	1528.51	1528.5	1528.53	1528.52	1528.56	1528.54	1528.49	1528.37	1528.31	1528.23	1528.07	1527.98	1527.9	1527.78	1527.67	1527.6	1527.5	1527.42	1527.29	1527.11	1526.99	1526.88	1526.77	1526.7	1526.53	1526.45	1526.28	1526.12	1525.99	1525.85	1525.71	1525.51	1525.38	1525.25	1525.13	1525.03
1508.71	1508.84	1508.89	1508.98	1509.04	1509.4	1509.93	1510.13	1510.4	1510.74	1510.79	1510.95	1510.98	1511.07	1511.05	1511.1	1511.16	1511.21	1510.96	1510.62	1510.72	1510.82	1510.94	1511.06	1511.11	1511.3	1511.42	1511.61	1511.66	1511.79	1511.97	1512.17	1512.23	1512.34	1512.38	1512.47	1512.49	1512.56	1512.59	1512.58	1512.55	1512.64	1512.62	1512.74	1512.8	1512.94	1512.98	1513.04	1513.4	1513.78	1514.03	1514.36	1514.56	1514.78	1515.02	1515.14	1515.27	1515.29	1515.36	1515.42	1515.41	1515.47	1515.57	1515.69	1516.02	1516.21	1516.35	1516.49	1516.58	1516.58	1516.67	1516.82	1516.97	1517.1	1517.17	1517.24	1517.36	1517.61	1517.87	1518.09	1518.35	1518.51	1518.67	1518.93	1519.07	1519.32	1519.45	1519.59	1519.7	1519.78	1519.87	1519.84	1519.78	1519.68	1519.62	1519.58	1519.6	1519.57	1519.53	1519.59	1519.65	1519.65	1519.71	1519.76	1519.7	1519.64	1519.6	1519.59	1519.58	1519.58	1519.58	1519.61	1519.64	1519.68	1519.73	1519.79	1519.85	1519.88	1519.93	1519.94	1520.01	1520	1519.99	1520	1519.98	1519.96	1520	1520.07	1520.22	1520.08	1520.01	1519.91	1519.88	1519.91	1519.88	1519.88	1519.9	1519.92	1519.96	1519.98	1519.96	1519.98	1520.01	1520.03	1520.07	1520.12	1520.19	1520.29	1520.42	1520.64	1520.93	1521.23	1521.47	1521.72	1521.97	1522.15	1522.26	1522.36	1522.43	1522.57	1522.73	1522.86	1522.99	1523.08	1523.1	1523.21	1523.35	1523.51	1523.61	1523.69	1523.74	1523.76	1523.8	1523.9	1524	1524	1523.94	1523.84	1523.81	1523.77	1523.78	1523.83	1523.81	1523.89	1523.91	1523.97	1524	1524.12	1524.22	1524.28	1524.22	1524.18	1524.16	1524.16	1524.2	1524.24	1524.26	1524.33	1524.42	1524.6	1524.79	1524.96	1525.14	1525.34	1525.48	1525.62	1525.7	1525.76	1525.84	1525.86	1525.95	1526.05	1526.15	1526.27	1526.43	1526.56	1526.66	1526.84	1526.99	1527.12	1527.37	1527.53	1527.71	1527.82	1527.92	1527.94	1528.03	1528.36	1528.46	1528.55	1528.42	1528.58	1528.69	1528.63	1528.69	1528.8	1528.88	1528.92	1528.95	1529.03	1529.12	1529.24	1529.33	1529.44	1529.47	1529.56	1529.68	1529.71	1529.67	1529.67	1529.65	1529.73	1529.72	1529.76	1529.75	1529.79	1529.82	1529.79	1529.87	1530.02	1530.02	1530.02	1530.16	1530.16	1530.17	1530.27	1530.57	1530.79	1530.81	1531	1531.12	1531.4	1531.7	1532.09	1532.15	1532.21	1532.33	1532.58	1532.77	1532.94	1533.07	1532.93	1532.85	1532.83	1532.78	1532.79	1532.9	1533.03	1533.09	1533.07	1532.98	1532.98	1533.29	1533.25	1533.38	1533.4	1533.32	1533.35	1533.27	1533.25	1533.07	1533.04	1533.11	1532.93	1532.91	1532.89	1532.86	1532.75	1532.58	1532.43	1532.13	1531.87	1531.62	1531.43	1531.37	1531.22	1531.23	1531.1	1531	1530.78	1530.65	1530.43	1530.07	1529.97	1529.7	1529.68	1529.67	1529.64	1529.48	1529.37	1529.19	1528.99	1528.88	1528.78	1528.74	1528.7	1528.69	1528.64	1528.59	1528.57	1528.51	1528.45	1528.37	1528.38	1528.37	1528.33	1528.37	1528.39	1528.41	1528.4	1528.3	1528.19	1528.09	1527.98	1527.9	1527.76	1527.68	1527.56	1527.5	1527.44	1527.24	1527.18	1527.05	1526.99	1526.85	1526.74	1526.69	1526.58	1526.43	1526.33	1526.14	1525.99	1525.84	1525.7	1525.53	1525.38	1525.28	1525.18	1525.09
1508.8	1508.92	1508.93	1508.99	1509.31	1509.8	1510.18	1510.45	1510.65	1510.82	1510.96	1511.06	1511.22	1511.25	1511.33	1511.32	1511.38	1511.33	1511.31	1510.95	1510.86	1510.95	1511.03	1511.1	1511.24	1511.37	1511.49	1511.55	1511.64	1511.79	1511.98	1512.13	1512.26	1512.31	1512.44	1512.48	1512.55	1512.52	1512.56	1512.54	1512.61	1512.57	1512.76	1512.76	1512.72	1512.84	1512.86	1513.01	1513.16	1513.42	1513.72	1513.95	1514.24	1514.41	1514.67	1514.83	1514.99	1515.07	1515.1	1515.11	1515.07	1515.01	1515.02	1515.35	1515.71	1515.9	1515.91	1516.09	1516.28	1516.48	1516.6	1516.71	1516.8	1516.94	1517.08	1517.18	1517.39	1517.59	1517.76	1517.93	1518.19	1518.44	1518.71	1518.88	1519	1519.12	1519.31	1519.38	1519.46	1519.52	1519.59	1519.49	1519.42	1519.3	1519.24	1519.25	1519.24	1519.21	1519.26	1519.28	1519.32	1519.34	1519.43	1519.45	1519.48	1519.5	1519.51	1519.49	1519.55	1519.55	1519.56	1519.59	1519.63	1519.68	1519.76	1519.82	1519.85	1519.9	1519.94	1519.94	1519.96	1519.99	1519.97	1519.97	1520.01	1520.08	1520.19	1520.1	1519.98	1519.93	1519.86	1519.89	1519.96	1520.04	1520.02	1519.98	1520	1520.01	1520.04	1520.1	1520.08	1520.11	1520.08	1520.06	1520.08	1520.13	1520.22	1520.31	1520.52	1520.71	1521.02	1521.36	1521.67	1521.92	1522.17	1522.35	1522.42	1522.52	1522.58	1522.67	1522.83	1522.96	1523.06	1523.12	1523.22	1523.32	1523.45	1523.58	1523.68	1523.75	1523.77	1523.79	1523.85	1523.95	1524.05	1524.08	1524.05	1523.98	1523.9	1523.88	1523.85	1523.85	1523.87	1523.9	1523.95	1524.01	1524.02	1524.06	1524.17	1524.19	1524.21	1524.2	1524.18	1524.19	1524.21	1524.24	1524.27	1524.36	1524.41	1524.53	1524.76	1524.96	1525.17	1525.37	1525.49	1525.65	1525.7	1525.79	1525.89	1525.87	1525.92	1526.01	1526.16	1526.25	1526.39	1526.51	1526.62	1526.78	1526.94	1527.09	1527.34	1527.53	1527.66	1527.74	1527.68	1527.73	1527.71	1527.9	1528.04	1528.12	1528.11	1528.24	1528.32	1528.33	1528.47	1528.64	1528.63	1528.68	1528.76	1528.86	1528.88	1528.97	1529.08	1529.17	1529.27	1529.35	1529.46	1529.56	1529.64	1529.6	1529.59	1529.69	1529.74	1529.71	1529.71	1529.78	1529.88	1529.86	1529.99	1529.98	1529.99	1529.97	1530.13	1530.14	1530.16	1530.24	1530.39	1530.58	1530.78	1530.97	1531.22	1531.67	1531.9	1532.07	1532.26	1532.45	1532.44	1532.78	1532.78	1532.9	1532.96	1532.89	1532.89	1532.91	1532.95	1532.88	1532.77	1532.88	1533.04	1533.06	1533.03	1533.06	1533.25	1533.37	1533.38	1533.44	1533.56	1533.47	1533.17	1533.07	1533.08	1533.04	1533.04	1532.9	1532.85	1532.96	1532.92	1532.86	1532.71	1532.54	1532.09	1531.81	1531.56	1531.44	1531.38	1531.3	1531.22	1531.08	1530.91	1530.69	1530.53	1530.3	1530	1529.78	1529.63	1529.49	1529.45	1529.35	1529.18	1529.12	1528.93	1528.81	1528.71	1528.62	1528.52	1528.48	1528.45	1528.4	1528.37	1528.37	1528.34	1528.29	1528.24	1528.21	1528.19	1528.19	1528.21	1528.23	1528.21	1528.24	1528.17	1528.06	1528.01	1527.91	1527.78	1527.67	1527.61	1527.5	1527.36	1527.3	1527.23	1527.09	1526.99	1526.89	1526.75	1526.72	1526.63	1526.6	1526.45	1526.24	1526.13	1525.95	1525.8	1525.7	1525.53	1525.36	1525.28	1525.17	1525.13
1508.82	1508.87	1509.01	1509.13	1509.59	1509.96	1510.2	1510.44	1510.66	1510.94	1511.14	1511.24	1511.37	1511.41	1511.53	1511.49	1511.49	1511.47	1511.48	1511.28	1511.02	1511.12	1511.21	1511.23	1511.33	1511.4	1511.51	1511.6	1511.69	1511.82	1512.06	1512.18	1512.31	1512.43	1512.41	1512.44	1512.49	1512.53	1512.54	1512.51	1512.52	1512.65	1512.75	1512.76	1512.8	1512.84	1512.82	1512.83	1512.99	1513.18	1513.38	1513.62	1513.91	1514.04	1514.3	1514.46	1514.61	1514.67	1514.69	1514.69	1514.56	1514.49	1514.67	1514.88	1515.29	1515.79	1516.01	1516.03	1516.02	1516.22	1516.39	1516.55	1516.71	1516.89	1516.96	1517.13	1517.31	1517.45	1517.73	1517.95	1518.16	1518.34	1518.63	1518.8	1518.92	1519.04	1519.16	1519.21	1519.24	1519.26	1519.21	1519.07	1518.98	1518.94	1518.92	1518.88	1518.94	1518.89	1518.96	1519.03	1519.05	1519.18	1519.24	1519.28	1519.35	1519.44	1519.48	1519.5	1519.54	1519.54	1519.57	1519.62	1519.68	1519.72	1519.8	1519.83	1519.88	1519.93	1519.94	1519.94	1519.96	1519.95	1519.93	1520.04	1520.11	1520.1	1520.04	1519.97	1519.83	1519.83	1519.87	1519.92	1520.05	1520.08	1520.08	1520.04	1520.05	1520.1	1520.17	1520.21	1520.27	1520.26	1520.17	1520.14	1520.13	1520.19	1520.29	1520.4	1520.59	1520.81	1521.15	1521.5	1521.83	1522.15	1522.33	1522.48	1522.55	1522.65	1522.71	1522.79	1522.91	1523.03	1523.17	1523.24	1523.31	1523.41	1523.53	1523.65	1523.72	1523.8	1523.84	1523.84	1523.83	1523.95	1524.1	1524.12	1524.03	1524.03	1523.94	1523.97	1523.96	1523.99	1523.96	1524.01	1524.02	1524.04	1524.07	1524.1	1524.11	1524.13	1524.16	1524.18	1524.19	1524.21	1524.22	1524.26	1524.32	1524.38	1524.42	1524.61	1524.81	1524.96	1525.12	1525.37	1525.52	1525.62	1525.68	1525.75	1525.84	1525.9	1525.96	1525.99	1526.12	1526.2	1526.33	1526.43	1526.57	1526.81	1526.95	1527	1527.16	1527.44	1527.6	1527.61	1527.58	1527.53	1527.58	1527.63	1527.73	1527.72	1527.79	1527.86	1528	1528.14	1528.28	1528.38	1528.45	1528.53	1528.57	1528.62	1528.7	1528.76	1528.89	1529.04	1529.28	1529.23	1529.3	1529.41	1529.47	1529.46	1529.54	1529.74	1529.93	1529.74	1529.7	1529.78	1529.86	1530.05	1530.2	1530.03	1529.98	1529.93	1530.06	1530.1	1530.15	1530.26	1530.39	1530.58	1530.83	1531.02	1531.33	1531.79	1532.06	1532.06	1532.27	1532.41	1532.63	1532.82	1532.79	1532.92	1532.9	1532.87	1532.86	1532.96	1532.96	1532.93	1532.81	1532.86	1533.01	1533	1533.12	1533.23	1533.25	1533.24	1533.36	1533.42	1533.54	1533.54	1533.2	1532.99	1533.01	1533.02	1532.94	1532.92	1532.89	1532.88	1532.86	1532.82	1532.79	1532.57	1532.12	1531.75	1531.45	1531.31	1531.27	1531.2	1531.02	1530.86	1530.78	1530.6	1530.46	1530.26	1530	1529.74	1529.58	1529.29	1529.18	1529.04	1528.93	1528.82	1528.69	1528.58	1528.48	1528.42	1528.29	1528.24	1528.19	1528.15	1528.17	1528.15	1528.16	1528.14	1528.12	1528.05	1528.01	1528.02	1528.03	1528.01	1528.03	1528.02	1528	1527.95	1527.87	1527.77	1527.68	1527.6	1527.51	1527.42	1527.28	1527.19	1527.11	1527.03	1526.93	1526.83	1526.76	1526.73	1526.61	1526.55	1526.41	1526.31	1526.13	1525.94	1525.83	1525.68	1525.52	1525.42	1525.26	1525.17	1525.13
1508.85	1509	1509.14	1509.45	1509.69	1509.95	1510.23	1510.57	1510.66	1510.87	1511.15	1511.33	1511.52	1511.59	1511.56	1511.57	1511.53	1511.65	1511.65	1511.52	1511.2	1511.25	1511.32	1511.4	1511.43	1511.5	1511.55	1511.66	1511.75	1511.89	1512.04	1512.14	1512.26	1512.35	1512.43	1512.54	1512.55	1512.56	1512.47	1512.49	1512.6	1512.64	1512.72	1512.67	1512.74	1512.72	1512.75	1512.78	1512.91	1513.07	1513.1	1513.35	1513.5	1513.76	1513.89	1514.06	1514.21	1514.24	1514.18	1514.15	1514.19	1514.15	1514.32	1514.89	1515.28	1515.67	1516.03	1516.17	1516.02	1516.06	1516.18	1516.43	1516.59	1516.77	1516.92	1517.1	1517.23	1517.42	1517.68	1517.96	1518.19	1518.39	1518.53	1518.67	1518.81	1518.84	1518.96	1519.01	1519	1518.91	1518.8	1518.72	1518.64	1518.66	1518.63	1518.66	1518.68	1518.7	1518.73	1518.78	1518.83	1518.99	1519.05	1519.12	1519.25	1519.36	1519.45	1519.51	1519.56	1519.61	1519.63	1519.68	1519.71	1519.75	1519.83	1519.87	1519.9	1519.92	1519.94	1519.95	1520	1520.14	1520.12	1520.07	1520.03	1519.92	1519.88	1519.87	1519.86	1519.9	1519.93	1520	1520.05	1520.14	1520.08	1520.06	1520.08	1520.17	1520.3	1520.31	1520.35	1520.37	1520.27	1520.22	1520.2	1520.25	1520.34	1520.52	1520.71	1520.98	1521.28	1521.68	1521.98	1522.27	1522.49	1522.58	1522.66	1522.76	1522.81	1522.88	1523.03	1523.15	1523.26	1523.36	1523.43	1523.5	1523.65	1523.73	1523.75	1523.79	1523.87	1523.91	1523.9	1524.05	1524.11	1524.11	1524.09	1524.11	1524.05	1523.99	1524.05	1524.13	1524.14	1524.11	1524.11	1524.09	1524.14	1524.19	1524.19	1524.18	1524.18	1524.2	1524.22	1524.21	1524.25	1524.28	1524.34	1524.39	1524.48	1524.6	1524.79	1524.99	1525.17	1525.37	1525.52	1525.66	1525.72	1525.82	1525.84	1525.91	1525.95	1526.04	1526.12	1526.19	1526.23	1526.38	1526.53	1526.74	1526.91	1527.08	1527.15	1527.31	1527.34	1527.33	1527.28	1527.25	1527.3	1527.36	1527.49	1527.61	1527.64	1527.76	1527.95	1528.03	1528.07	1528.16	1528.28	1528.3	1528.37	1528.41	1528.52	1528.63	1528.76	1529.02	1529.07	1529.1	1529.2	1529.28	1529.27	1529.32	1529.47	1529.76	1529.84	1529.78	1529.76	1529.78	1529.85	1530.04	1530.15	1530.03	1529.95	1529.96	1530	1530.1	1530.18	1530.26	1530.44	1530.58	1530.75	1531	1531.15	1531.54	1531.84	1532.02	1532.14	1532.42	1532.59	1532.67	1532.74	1532.92	1532.98	1532.97	1532.93	1532.96	1533	1533.12	1533.11	1532.81	1532.89	1532.96	1533.07	1533.19	1533.19	1533.24	1533.22	1533.29	1533.26	1533.22	1533.19	1533	1532.87	1532.98	1532.98	1532.98	1532.87	1532.77	1532.7	1532.68	1532.6	1532.31	1532.07	1531.77	1531.39	1531.17	1531.1	1531.07	1530.9	1530.81	1530.76	1530.66	1530.62	1530.32	1530	1529.73	1529.5	1529.27	1529.07	1528.93	1528.75	1528.62	1528.44	1528.38	1528.24	1528.19	1528.07	1528.02	1528	1527.98	1527.96	1527.96	1527.95	1527.96	1527.94	1527.87	1527.87	1527.85	1527.88	1527.9	1527.85	1527.86	1527.85	1527.8	1527.73	1527.65	1527.56	1527.52	1527.37	1527.33	1527.19	1527.11	1527.04	1526.96	1526.88	1526.81	1526.7	1526.66	1526.58	1526.48	1526.38	1526.27	1526.16	1526	1525.82	1525.68	1525.54	1525.44	1525.27	1525.21	1525.14
1508.88	1508.99	1510.04	1510.1	1509.82	1509.95	1510.21	1510.54	1510.65	1510.82	1511.14	1511.41	1511.53	1511.57	1511.65	1511.76	1511.76	1511.71	1511.71	1511.63	1511.43	1511.42	1511.49	1511.45	1511.51	1511.56	1511.67	1511.74	1511.84	1511.95	1512.12	1512.18	1512.3	1512.45	1512.47	1512.5	1512.52	1512.54	1512.5	1512.51	1512.52	1512.61	1512.66	1512.66	1512.66	1512.67	1512.63	1512.68	1512.78	1512.88	1512.98	1513.02	1513.16	1513.35	1513.54	1513.68	1513.7	1513.65	1513.64	1513.59	1513.73	1513.86	1514.33	1514.72	1515.07	1515.45	1515.92	1516.12	1516.16	1515.97	1516.06	1516.26	1516.51	1516.59	1516.73	1516.93	1517.12	1517.46	1517.77	1518	1518.13	1518.29	1518.48	1518.6	1518.71	1518.73	1518.79	1518.77	1518.74	1518.62	1518.53	1518.44	1518.38	1518.39	1518.46	1518.41	1518.48	1518.47	1518.48	1518.59	1518.69	1518.79	1518.98	1519.13	1519.23	1519.4	1519.54	1519.57	1519.6	1519.63	1519.73	1519.71	1519.73	1519.78	1519.82	1519.88	1519.91	1519.97	1520.14	1520.25	1520.33	1520.25	1520.1	1519.97	1519.88	1519.92	1519.91	1519.91	1519.91	1519.99	1520.05	1520.07	1520.13	1520.17	1520.09	1520.07	1520.16	1520.24	1520.39	1520.43	1520.42	1520.4	1520.35	1520.27	1520.28	1520.33	1520.43	1520.6	1520.84	1521.1	1521.42	1521.83	1522.1	1522.37	1522.63	1522.7	1522.76	1522.89	1522.99	1523.04	1523.15	1523.25	1523.39	1523.48	1523.61	1523.62	1523.67	1523.8	1523.8	1523.9	1523.93	1523.96	1524	1524.13	1524.15	1524.16	1524.15	1524.13	1524.15	1524.08	1524.08	1524.25	1524.26	1524.2	1524.12	1524.19	1524.24	1524.27	1524.25	1524.23	1524.26	1524.21	1524.25	1524.28	1524.26	1524.32	1524.35	1524.4	1524.52	1524.63	1524.83	1524.95	1525.11	1525.34	1525.51	1525.63	1525.68	1525.78	1525.84	1525.91	1525.99	1526.08	1526.13	1526.17	1526.24	1526.33	1526.46	1526.6	1526.73	1526.97	1527.1	1527.24	1527.26	1527.17	1527.17	1527.15	1527.15	1527.16	1527.29	1527.5	1527.5	1527.68	1527.83	1527.92	1527.95	1528.02	1528.08	1528.14	1528.26	1528.33	1528.46	1528.59	1528.68	1528.81	1528.85	1528.89	1529.04	1529.13	1529.16	1529.26	1529.37	1529.47	1529.57	1529.71	1529.74	1529.8	1529.88	1530	1530.07	1530.04	1530	1530.03	1530.05	1530.19	1530.28	1530.36	1530.47	1530.59	1530.78	1530.89	1531.05	1531.38	1531.66	1531.76	1532.01	1532.22	1532.56	1532.63	1532.82	1532.9	1533	1533.1	1533.08	1533.08	1533.04	1533.02	1533.01	1532.92	1532.95	1532.97	1533.01	1533.07	1533.15	1533.26	1533.21	1533.07	1533.04	1533.07	1532.98	1532.81	1532.86	1532.97	1532.96	1532.83	1532.81	1532.63	1532.59	1532.47	1532.41	1532.18	1531.9	1531.65	1531.36	1531.18	1530.98	1530.9	1530.76	1530.75	1530.67	1530.53	1530.37	1530.19	1530	1529.72	1529.44	1529.14	1528.97	1528.85	1528.58	1528.4	1528.17	1528.09	1527.98	1527.91	1527.89	1527.85	1527.8	1527.78	1527.74	1527.7	1527.71	1527.71	1527.7	1527.66	1527.69	1527.68	1527.66	1527.71	1527.69	1527.69	1527.67	1527.62	1527.55	1527.51	1527.41	1527.36	1527.26	1527.21	1527.13	1526.99	1526.91	1526.85	1526.79	1526.71	1526.66	1526.58	1526.47	1526.4	1526.34	1526.2	1526.1	1525.98	1525.84	1525.67	1525.55	1525.42	1525.3	1525.21	1525.11
1510.76	1509.8	1512.75	1512.74	1512.71	1511.78	1512.17	1510.42	1510.5	1510.7	1511.08	1511.49	1511.65	1511.68	1511.7	1511.74	1511.77	1511.78	1511.81	1511.69	1511.52	1511.53	1511.59	1511.6	1511.64	1511.69	1511.71	1511.76	1511.91	1512.1	1512.24	1512.27	1512.49	1512.48	1512.5	1512.49	1512.54	1512.55	1512.53	1512.51	1512.52	1512.56	1512.65	1512.65	1512.61	1512.61	1512.61	1512.66	1512.65	1512.76	1512.85	1512.9	1512.9	1512.93	1512.99	1513.17	1513.23	1513.05	1513.08	1513.17	1513.35	1513.66	1514.1	1514.46	1514.87	1515.28	1515.7	1516.05	1516.21	1516.17	1516.08	1516.07	1516.35	1516.6	1516.71	1516.94	1517.14	1517.4	1517.7	1517.92	1518.12	1518.3	1518.4	1518.49	1518.49	1518.61	1518.55	1518.54	1518.44	1518.36	1518.24	1518.15	1518.12	1518.15	1518.18	1518.2	1518.17	1518.21	1518.34	1518.42	1518.55	1518.81	1519	1519.2	1519.47	1519.69	1519.82	1519.86	1519.84	1519.81	1519.81	1519.8	1519.81	1519.81	1519.86	1519.9	1520.01	1520.29	1520.53	1520.41	1520.24	1520.08	1519.95	1519.92	1519.91	1519.94	1519.99	1520.02	1520.03	1520.06	1520.11	1520.15	1520.18	1520.25	1520.14	1520.1	1520.2	1520.31	1520.44	1520.53	1520.52	1520.45	1520.39	1520.33	1520.35	1520.38	1520.51	1520.71	1520.94	1521.26	1521.58	1521.95	1522.22	1522.49	1522.73	1522.84	1522.9	1523	1523.09	1523.15	1523.25	1523.37	1523.55	1523.7	1523.78	1523.83	1523.78	1523.82	1523.86	1524	1524	1523.99	1524.09	1524.2	1524.17	1524.17	1524.16	1524.22	1524.26	1524.18	1524.09	1524.26	1524.29	1524.29	1524.23	1524.19	1524.21	1524.25	1524.3	1524.29	1524.29	1524.29	1524.27	1524.28	1524.31	1524.34	1524.38	1524.44	1524.51	1524.57	1524.74	1524.91	1525.04	1525.31	1525.5	1525.59	1525.66	1525.72	1525.81	1525.93	1526	1526.1	1526.26	1526.34	1526.31	1526.33	1526.54	1526.6	1526.65	1526.79	1526.99	1527.14	1527.27	1527.18	1527.09	1527.05	1527.09	1527.1	1527.21	1527.32	1527.43	1527.57	1527.68	1527.75	1527.84	1527.96	1528.02	1528.08	1528.19	1528.22	1528.37	1528.5	1528.53	1528.55	1528.64	1528.73	1528.86	1529.02	1529.22	1529.23	1529.2	1529.33	1529.45	1529.56	1529.7	1529.86	1529.98	1530.1	1530.13	1530.13	1530.11	1530.12	1530.09	1530.21	1530.61	1530.47	1530.46	1530.6	1530.79	1530.93	1530.9	1531.16	1531.45	1531.58	1531.84	1532	1532.22	1532.43	1532.58	1532.69	1532.76	1533	1533.2	1533.18	1533.21	1532.97	1532.95	1533.01	1533.06	1533.01	1532.98	1533.05	1533.12	1533.16	1533.19	1533.03	1532.93	1532.93	1532.81	1532.69	1532.74	1532.86	1532.89	1532.77	1532.56	1532.51	1532.49	1532.3	1532.31	1532.24	1532.04	1531.8	1531.33	1531.31	1530.99	1530.66	1530.5	1530.53	1530.53	1530.38	1530.15	1530.05	1529.89	1529.68	1529.41	1529.14	1528.9	1528.73	1528.48	1528.22	1527.96	1527.93	1527.79	1527.72	1527.72	1527.64	1527.59	1527.56	1527.51	1527.49	1527.46	1527.47	1527.48	1527.42	1527.47	1527.44	1527.47	1527.49	1527.49	1527.48	1527.46	1527.4	1527.37	1527.31	1527.25	1527.16	1527.17	1527.07	1526.98	1526.91	1526.85	1526.74	1526.71	1526.64	1526.6	1526.51	1526.43	1526.33	1526.3	1526.2	1526.09	1525.95	1525.84	1525.68	1525.56	1525.4	1525.3	1525.21	1525.1
1514.36	1515.47	1518.9	1519.03	1518.33	1516.48	1513.92	1511.28	1510.55	1510.66	1511.05	1511.41	1511.62	1511.76	1511.77	1511.83	1511.89	1511.87	1511.81	1511.7	1511.65	1511.69	1511.72	1511.68	1511.71	1511.8	1511.81	1511.84	1511.97	1512.19	1512.29	1512.34	1512.6	1512.49	1512.44	1512.56	1512.56	1512.62	1512.56	1512.52	1512.48	1512.52	1512.58	1512.6	1512.63	1512.62	1512.61	1512.5	1512.62	1512.71	1512.7	1512.71	1512.68	1512.62	1512.64	1512.68	1512.72	1512.68	1512.72	1512.92	1513.15	1513.55	1513.95	1514.28	1514.69	1515.11	1515.59	1516	1516.16	1516.22	1516.21	1516.06	1516.18	1516.47	1516.62	1516.8	1517.09	1517.38	1517.63	1517.84	1518.03	1518.16	1518.28	1518.33	1518.36	1518.36	1518.34	1518.26	1518.18	1518.08	1518.03	1517.93	1517.95	1517.94	1517.97	1518.04	1518.06	1518.07	1518.22	1518.32	1518.54	1518.9	1519.18	1519.48	1519.92	1520.05	1520.13	1520.2	1520.05	1519.97	1519.9	1519.86	1519.86	1519.88	1519.9	1519.94	1520.3	1520.44	1520.37	1520.2	1520.04	1520.02	1519.97	1519.96	1519.99	1520.06	1520.1	1520.12	1520.18	1520.15	1520.15	1520.2	1520.26	1520.3	1520.22	1520.2	1520.32	1520.4	1520.52	1520.56	1520.51	1520.47	1520.43	1520.41	1520.42	1520.49	1520.6	1520.8	1521.07	1521.43	1521.71	1522.01	1522.34	1522.6	1522.81	1522.95	1523.05	1523.1	1523.18	1523.24	1523.32	1523.5	1523.67	1523.83	1523.91	1524	1524	1523.96	1523.94	1524.03	1524.05	1524.08	1524.18	1524.24	1524.19	1524.23	1524.27	1524.3	1524.31	1524.23	1524.12	1524.21	1524.33	1524.38	1524.31	1524.28	1524.26	1524.28	1524.3	1524.29	1524.32	1524.29	1524.32	1524.32	1524.35	1524.37	1524.42	1524.46	1524.5	1524.54	1524.68	1524.81	1524.95	1525.21	1525.42	1525.49	1525.58	1525.65	1525.74	1525.89	1526	1526.12	1526.21	1526.31	1526.34	1526.36	1526.51	1526.59	1526.58	1526.75	1526.9	1527.01	1527.16	1527.14	1527.06	1527.12	1527.14	1527.11	1527.15	1527.26	1527.46	1527.55	1527.6	1527.69	1527.74	1527.92	1528.03	1528.1	1528.09	1528.14	1528.32	1528.39	1528.33	1528.42	1528.5	1528.56	1528.67	1528.83	1529.06	1529.18	1529.12	1529.26	1529.38	1529.5	1529.72	1529.96	1529.99	1530.2	1530.25	1530.22	1530.17	1530.17	1530.28	1530.36	1530.59	1530.65	1530.63	1530.67	1530.98	1531.08	1531.1	1531.24	1531.39	1531.53	1531.64	1531.77	1531.96	1532.12	1532.27	1532.41	1532.63	1532.8	1532.93	1533.02	1533.14	1533.18	1533.02	1532.96	1533.08	1533.02	1533.06	1533.08	1533.01	1533	1533.18	1533.08	1533.04	1532.89	1532.75	1532.63	1532.62	1532.71	1532.72	1532.65	1532.44	1532.35	1532.38	1532.28	1532.11	1531.91	1531.91	1531.63	1531.33	1531.12	1530.86	1530.58	1530.4	1530.34	1530.28	1530.19	1530.01	1529.91	1529.87	1529.61	1529.29	1529	1528.75	1528.65	1528.69	1528.32	1528.14	1528.1	1527.83	1527.7	1527.56	1527.41	1527.38	1527.35	1527.29	1527.22	1527.22	1527.2	1527.26	1527.23	1527.22	1527.23	1527.26	1527.28	1527.3	1527.24	1527.24	1527.21	1527.18	1527.11	1527.05	1526.98	1526.97	1526.89	1526.84	1526.8	1526.7	1526.66	1526.57	1526.55	1526.51	1526.43	1526.42	1526.32	1526.26	1526.18	1526.08	1525.98	1525.82	1525.69	1525.58	1525.45	1525.36	1525.24	1525.14
1516.99	1519.94	1519.87	1519.71	1519.6	1519.52	1519.42	1518.64	1517.09	1510.7	1510.95	1511.38	1511.7	1511.81	1511.82	1511.9	1511.9	1511.94	1511.9	1511.72	1511.75	1511.73	1511.79	1511.82	1511.86	1511.82	1511.84	1511.87	1511.92	1512.22	1512.35	1512.45	1512.66	1512.54	1512.52	1512.56	1512.59	1512.6	1512.6	1512.58	1512.58	1512.6	1512.57	1512.56	1512.59	1512.55	1512.58	1512.52	1512.56	1512.59	1512.56	1512.55	1512.49	1512.44	1512.42	1512.42	1512.43	1512.5	1512.62	1512.81	1513.06	1513.31	1513.67	1514.14	1514.54	1514.9	1515.34	1515.77	1516.05	1516.25	1516.29	1516.11	1516.06	1516.25	1516.62	1516.79	1517.01	1517.24	1517.51	1517.77	1517.93	1518.01	1518.11	1518.15	1518.17	1518.14	1518.11	1518.03	1517.96	1517.87	1517.83	1517.82	1517.81	1517.81	1517.82	1517.91	1517.94	1518.01	1518.19	1518.41	1518.66	1518.99	1519.38	1519.7	1520.04	1520.24	1520.37	1520.37	1520.25	1520.07	1519.94	1519.92	1519.88	1519.9	1519.94	1520.05	1520.15	1520.24	1520.22	1520.12	1520.07	1520.06	1520.09	1520.11	1520.15	1520.21	1520.24	1520.26	1520.28	1520.26	1520.25	1520.29	1520.35	1520.34	1520.29	1520.33	1520.5	1520.56	1520.63	1520.61	1520.56	1520.52	1520.5	1520.48	1520.55	1520.61	1520.73	1520.97	1521.25	1521.58	1521.83	1522.11	1522.38	1522.65	1522.86	1523.03	1523.15	1523.21	1523.32	1523.35	1523.43	1523.57	1523.74	1523.88	1523.93	1523.97	1524.07	1524.07	1524.05	1524.11	1524.13	1524.2	1524.28	1524.25	1524.25	1524.3	1524.37	1524.38	1524.41	1524.34	1524.16	1524.14	1524.2	1524.29	1524.32	1524.29	1524.34	1524.29	1524.27	1524.29	1524.32	1524.35	1524.31	1524.35	1524.41	1524.4	1524.48	1524.44	1524.48	1524.55	1524.61	1524.78	1524.9	1525.06	1525.34	1525.47	1525.52	1525.6	1525.76	1525.93	1525.99	1526.05	1526.14	1526.24	1526.27	1526.35	1526.45	1526.5	1526.57	1526.67	1526.8	1526.92	1526.95	1527.03	1527.03	1527.03	1527.15	1527.15	1527.18	1527.3	1527.45	1527.47	1527.56	1527.7	1527.79	1527.87	1528	1528.12	1528.09	1528.11	1528.23	1528.26	1528.3	1528.33	1528.35	1528.41	1528.53	1528.72	1528.95	1529.11	1529.14	1529.34	1529.43	1529.55	1529.78	1529.95	1530.02	1530.17	1530.37	1530.28	1530.26	1530.3	1530.48	1530.56	1530.58	1530.75	1530.71	1530.8	1531.09	1531.26	1531.32	1531.43	1531.47	1531.46	1531.45	1531.54	1531.69	1531.79	1531.92	1532.13	1532.45	1532.7	1532.88	1532.97	1533.08	1533.18	1533.06	1532.91	1533	1533.06	1533.03	1532.98	1532.97	1533.08	1533.21	1533.21	1533.07	1532.84	1532.9	1532.69	1532.59	1532.52	1532.52	1532.58	1532.53	1532.57	1532.35	1532.17	1532.02	1531.82	1531.64	1531.4	1531.14	1530.91	1530.74	1530.51	1530.29	1530.14	1530.08	1529.99	1529.77	1529.72	1529.73	1529.62	1529.14	1528.77	1528.6	1528.55	1528.62	1528.49	1528.29	1528.11	1527.86	1527.67	1527.52	1527.32	1527.2	1527.17	1527.1	1527	1526.96	1527	1527.02	1527.01	1526.98	1526.97	1527.03	1527.05	1527.07	1527.09	1527.07	1526.99	1526.97	1526.9	1526.88	1526.79	1526.77	1526.73	1526.7	1526.63	1526.55	1526.56	1526.51	1526.45	1526.39	1526.36	1526.29	1526.26	1526.14	1526.09	1526.03	1525.91	1525.79	1525.68	1525.59	1525.43	1525.36	1525.27	1525.22
1517.75	1520.31	1520.21	1520.13	1520.01	1519.89	1519.75	1519.67	1519.1	1510.94	1511.08	1511.02	1511.9	1511.94	1511.96	1511.98	1512.03	1511.97	1511.91	1511.83	1511.81	1511.86	1511.87	1511.88	1511.9	1511.9	1511.96	1511.95	1511.91	1512.05	1512.32	1512.4	1512.54	1512.55	1512.55	1512.57	1512.58	1512.6	1512.61	1512.59	1512.56	1512.62	1512.56	1512.53	1512.54	1512.51	1512.51	1512.51	1512.52	1512.54	1512.48	1512.41	1512.38	1512.35	1512.31	1512.37	1512.31	1512.36	1512.45	1512.66	1512.91	1513.2	1513.47	1513.87	1514.28	1514.72	1515.24	1515.61	1515.84	1516.14	1516.32	1516.2	1516.11	1516.17	1516.41	1516.74	1516.96	1517.27	1517.5	1517.7	1517.83	1517.94	1518	1518.05	1518.07	1517.98	1517.92	1517.84	1517.78	1517.69	1517.64	1517.63	1517.63	1517.7	1517.67	1517.68	1517.77	1517.83	1518.09	1518.43	1518.79	1519.14	1519.4	1519.65	1519.94	1520.27	1520.42	1520.44	1520.35	1520.15	1520.04	1519.99	1519.97	1519.95	1520.02	1520.09	1520.2	1520.27	1520.17	1520.15	1520.13	1520.17	1520.21	1520.27	1520.34	1520.41	1520.39	1520.38	1520.43	1520.43	1520.41	1520.4	1520.36	1520.38	1520.41	1520.45	1520.65	1520.72	1520.73	1520.65	1520.58	1520.52	1520.57	1520.59	1520.66	1520.75	1520.88	1521.12	1521.42	1521.71	1521.98	1522.25	1522.49	1522.73	1522.91	1523.09	1523.21	1523.34	1523.44	1523.53	1523.59	1523.68	1523.81	1523.93	1523.99	1524.01	1524.08	1524.16	1524.2	1524.23	1524.33	1524.36	1524.35	1524.33	1524.3	1524.31	1524.41	1524.45	1524.42	1524.37	1524.24	1524.1	1524.13	1524.19	1524.24	1524.27	1524.26	1524.2	1524.21	1524.28	1524.26	1524.32	1524.35	1524.36	1524.39	1524.51	1524.43	1524.49	1524.51	1524.57	1524.64	1524.78	1524.93	1525.07	1525.28	1525.39	1525.49	1525.59	1525.74	1525.93	1526	1526.02	1526.12	1526.18	1526.25	1526.33	1526.44	1526.42	1526.54	1526.54	1526.75	1526.79	1526.84	1526.83	1526.92	1527.04	1527.17	1527.15	1527.21	1527.33	1527.37	1527.48	1527.6	1527.64	1527.82	1527.86	1527.98	1528.13	1528.1	1528.14	1528.21	1528.25	1528.31	1528.34	1528.32	1528.43	1528.52	1528.69	1528.88	1529.14	1529.3	1529.53	1529.71	1529.73	1530.03	1530.15	1530.15	1530.21	1530.32	1530.4	1530.5	1530.56	1530.68	1530.67	1530.66	1530.9	1530.9	1530.95	1531.31	1531.46	1531.66	1531.64	1531.49	1531.36	1531.4	1531.43	1531.5	1531.56	1531.68	1531.95	1532.25	1532.56	1532.7	1532.88	1533.05	1533.15	1533.01	1532.95	1532.91	1533.13	1533.01	1532.88	1533	1533.2	1533.22	1533.17	1532.96	1533.01	1532.92	1532.72	1532.56	1532.51	1532.56	1532.57	1532.58	1532.51	1532.27	1531.97	1531.95	1531.74	1531.56	1531.38	1531.16	1530.82	1530.64	1530.46	1530.32	1530.14	1530.06	1529.88	1529.63	1529.41	1529.33	1529.22	1528.96	1528.59	1528.35	1528.37	1528.52	1528.38	1528.21	1527.96	1527.71	1527.53	1527.34	1527.14	1527.01	1526.93	1526.88	1526.82	1526.74	1526.73	1526.75	1526.74	1526.74	1526.75	1526.79	1526.82	1526.83	1526.85	1526.83	1526.81	1526.8	1526.76	1526.71	1526.64	1526.64	1526.62	1526.55	1526.52	1526.42	1526.38	1526.36	1526.38	1526.28	1526.28	1526.16	1526.12	1526.07	1526.02	1525.97	1525.83	1525.77	1525.67	1525.59	1525.47	1525.4	1525.32	1525.26
1518.55	1520.7	1520.6	1520.46	1520.38	1520.24	1520.17	1520.06	1519.57	1511.11	1511.08	1511.47	1512.02	1512.06	1512.01	1512.06	1512.13	1512.08	1511.93	1511.9	1511.89	1511.91	1511.97	1511.98	1512	1511.99	1512	1511.98	1512.01	1512.05	1512.17	1512.3	1512.43	1512.49	1512.56	1512.63	1512.56	1512.6	1512.63	1512.6	1512.62	1512.59	1512.52	1512.52	1512.51	1512.57	1512.47	1512.47	1512.47	1512.41	1512.4	1512.4	1512.34	1512.31	1512.29	1512.3	1512.34	1512.4	1512.43	1512.55	1512.75	1512.98	1513.38	1513.84	1514.22	1514.58	1514.98	1515.44	1515.73	1516.07	1516.23	1516.33	1516.26	1516.2	1516.24	1516.7	1516.9	1517.12	1517.39	1517.64	1517.72	1517.84	1517.88	1517.89	1517.89	1517.84	1517.75	1517.7	1517.6	1517.56	1517.52	1517.53	1517.49	1517.51	1517.53	1517.62	1517.56	1517.74	1518.03	1518.3	1518.68	1519.07	1519.38	1519.68	1519.95	1520.19	1520.37	1520.39	1520.31	1520.21	1520.05	1520.04	1520.03	1520.08	1520.08	1520.2	1520.24	1520.28	1520.23	1520.21	1520.21	1520.28	1520.31	1520.36	1520.55	1520.64	1520.59	1520.53	1520.57	1520.5	1520.56	1520.54	1520.45	1520.46	1520.48	1520.59	1520.76	1520.85	1520.81	1520.71	1520.59	1520.6	1520.65	1520.66	1520.78	1520.93	1521.08	1521.3	1521.58	1521.96	1522.22	1522.4	1522.57	1522.8	1522.99	1523.16	1523.3	1523.4	1523.48	1523.59	1523.68	1523.8	1523.87	1523.91	1524.02	1524.1	1524.16	1524.27	1524.34	1524.4	1524.47	1524.52	1524.49	1524.42	1524.4	1524.34	1524.34	1524.44	1524.41	1524.34	1524.24	1524.13	1524.08	1524.11	1524.17	1524.19	1524.16	1524.17	1524.18	1524.23	1524.26	1524.33	1524.35	1524.37	1524.45	1524.45	1524.42	1524.47	1524.52	1524.55	1524.64	1524.75	1524.93	1525.06	1525.19	1525.4	1525.52	1525.66	1525.79	1525.93	1526	1526.09	1526.14	1526.17	1526.23	1526.27	1526.32	1526.41	1526.51	1526.56	1526.71	1526.73	1526.72	1526.74	1526.89	1526.99	1527.17	1527.15	1527.26	1527.39	1527.56	1527.57	1527.56	1527.62	1527.75	1528.05	1528.03	1528.1	1528.23	1528.31	1528.17	1528.24	1528.3	1528.28	1528.3	1528.45	1528.49	1528.59	1528.84	1529.19	1529.46	1529.67	1529.84	1529.99	1530.22	1530.29	1530.29	1530.36	1530.59	1530.63	1530.6	1530.7	1530.86	1531.01	1531	1531.16	1531.25	1531.38	1531.67	1531.67	1531.68	1531.71	1531.52	1531.56	1531.51	1531.48	1531.47	1531.5	1531.57	1531.83	1532.19	1532.73	1532.58	1532.97	1532.94	1532.91	1532.96	1532.98	1533.02	1533.08	1533.07	1532.95	1533.21	1533.25	1533.18	1533.04	1532.92	1532.91	1532.89	1532.78	1532.61	1532.45	1532.55	1532.59	1532.6	1532.4	1532.13	1531.98	1532.03	1531.84	1531.72	1531.42	1531.12	1530.74	1530.48	1530.35	1530.25	1530.08	1530.01	1529.81	1529.51	1529.25	1529.14	1529.06	1528.81	1528.34	1528.21	1528.15	1528.23	1528.24	1528.07	1527.74	1527.53	1527.35	1527.18	1526.98	1526.88	1526.8	1526.73	1526.63	1526.48	1526.49	1526.51	1526.49	1526.5	1526.49	1526.5	1526.57	1526.56	1526.61	1526.61	1526.62	1526.61	1526.56	1526.54	1526.49	1526.49	1526.45	1526.41	1526.33	1526.29	1526.23	1526.24	1526.2	1526.17	1526.13	1526.07	1526.05	1525.99	1525.99	1525.92	1525.86	1525.75	1525.68	1525.56	1525.47	1525.45	1525.39	1525.25
1519.18	1521.07	1521	1520.89	1520.76	1520.64	1520.51	1520.42	1518.25	1511.22	1511.12	1511.96	1512.06	1512.06	1512.12	1512.18	1512.24	1512.14	1511.95	1511.93	1511.94	1511.99	1512	1512	1512.06	1512.04	1512.07	1512.06	1512.04	1512.07	1512.09	1512.26	1512.43	1512.45	1512.49	1512.53	1512.63	1512.63	1512.65	1512.63	1512.62	1512.62	1512.58	1512.58	1512.56	1512.49	1512.45	1512.42	1512.43	1512.38	1512.32	1512.32	1512.33	1512.25	1512.34	1512.98	1514.36	1513.16	1512.49	1512.54	1512.78	1512.91	1513.17	1513.58	1513.97	1514.51	1514.96	1515.2	1515.53	1515.89	1516.13	1516.3	1516.35	1516.29	1516.21	1516.46	1516.83	1517.05	1517.27	1517.45	1517.58	1517.63	1517.76	1517.79	1517.74	1517.72	1517.66	1517.6	1517.5	1517.49	1517.45	1517.42	1517.41	1517.38	1517.43	1517.43	1517.48	1517.65	1517.82	1518.3	1518.73	1519.04	1519.38	1519.64	1519.93	1520.13	1520.29	1520.32	1520.31	1520.22	1520.15	1520.14	1520.13	1520.17	1520.19	1520.21	1520.22	1520.24	1520.25	1520.28	1520.32	1520.35	1520.35	1520.44	1520.61	1520.73	1520.75	1520.68	1520.71	1520.71	1520.69	1520.69	1520.62	1520.54	1520.57	1520.69	1520.88	1520.97	1520.94	1520.82	1520.75	1520.71	1520.72	1520.79	1520.91	1521.05	1521.23	1521.45	1521.79	1522.14	1522.41	1522.54	1522.76	1522.93	1523.07	1523.19	1523.31	1523.43	1523.52	1523.59	1523.66	1523.79	1523.93	1523.98	1524.04	1524.16	1524.22	1524.23	1524.39	1524.47	1524.59	1524.65	1524.61	1524.55	1524.53	1524.47	1524.39	1524.31	1524.3	1524.26	1524.23	1524.13	1524.08	1524.09	1524.16	1524.18	1524.17	1524.19	1524.19	1524.2	1524.24	1524.29	1524.34	1524.4	1524.5	1524.46	1524.44	1524.48	1524.49	1524.56	1524.62	1524.7	1524.86	1525.05	1525.13	1525.31	1525.42	1525.56	1525.68	1525.79	1525.92	1526.03	1526.14	1526.17	1526.2	1526.22	1526.3	1526.4	1526.45	1526.5	1526.66	1526.67	1526.65	1526.75	1526.89	1527.04	1527.16	1527.18	1527.26	1527.36	1527.43	1527.5	1527.5	1527.63	1527.76	1527.97	1528.04	1528.38	1528.5	1528.48	1528.24	1528.24	1528.26	1528.31	1528.33	1528.43	1528.4	1528.53	1528.78	1529.19	1529.55	1529.82	1529.91	1530.06	1530.31	1530.51	1530.77	1530.82	1530.93	1530.82	1530.89	1531.03	1531.06	1531.14	1531.32	1531.53	1531.38	1531.6	1531.7	1531.8	1531.71	1531.55	1531.53	1531.51	1531.33	1531.04	1531.14	1531.34	1531.53	1531.6	1531.92	1532.17	1532.37	1532.61	1532.74	1533.04	1532.92	1532.92	1532.95	1533.05	1533.17	1533.04	1533.21	1533.19	1532.93	1532.92	1532.95	1532.91	1532.89	1532.77	1532.53	1532.46	1532.36	1532.4	1532.45	1532.37	1532.37	1532.21	1532.04	1531.98	1531.88	1531.59	1531.09	1530.71	1530.5	1530.35	1530.21	1530.15	1529.97	1529.66	1529.5	1529.16	1528.96	1529.19	1528.69	1528.24	1528.01	1527.99	1527.99	1528.01	1528	1527.81	1527.55	1527.2	1526.96	1526.85	1526.76	1526.68	1526.62	1526.55	1526.36	1526.26	1526.26	1526.26	1526.2	1526.23	1526.23	1526.26	1526.31	1526.35	1526.38	1526.4	1526.37	1526.35	1526.33	1526.32	1526.32	1526.25	1526.26	1526.18	1526.1	1526.09	1526.11	1526.06	1526.02	1525.98	1525.97	1525.98	1525.91	1525.85	1525.82	1525.81	1525.72	1525.62	1525.54	1525.51	1525.43	1525.37	1525.26
1520.52	1521.45	1521.34	1521.25	1521.1	1521	1520.89	1518.81	1515.62	1511.42	1511.24	1512.07	1512.07	1512.09	1512.14	1512.23	1512.25	1512.17	1512.03	1512.01	1512	1512.07	1512.05	1512.09	1512.12	1512.08	1512.09	1512.09	1512.11	1512.1	1512.09	1512.17	1512.28	1512.4	1512.51	1512.53	1512.56	1512.61	1512.64	1512.61	1512.64	1512.59	1512.59	1512.56	1512.51	1512.47	1512.43	1512.37	1512.33	1512.35	1512.29	1512.25	1512.27	1512.31	1517.73	1519.32	1518.64	1516.23	1513.25	1512.63	1512.8	1512.96	1513.16	1513.36	1513.73	1514.18	1514.72	1515	1515.41	1515.74	1516.02	1516.19	1516.36	1516.39	1516.22	1516.32	1516.59	1516.9	1517.1	1517.28	1517.42	1517.48	1517.62	1517.6	1517.56	1517.57	1517.54	1517.5	1517.42	1517.35	1517.38	1517.34	1517.33	1517.3	1517.32	1517.38	1517.46	1517.61	1517.91	1518.27	1518.73	1519.12	1519.4	1519.63	1519.82	1519.98	1520.1	1520.14	1520.17	1520.2	1520.19	1520.19	1520.23	1520.26	1520.17	1520.19	1520.24	1520.21	1520.25	1520.34	1520.36	1520.38	1520.48	1520.53	1520.72	1520.83	1520.85	1520.84	1520.84	1520.89	1520.89	1520.88	1520.84	1520.71	1520.69	1520.83	1520.94	1521.01	1521.03	1520.96	1520.91	1520.87	1520.89	1520.95	1521.04	1521.14	1521.29	1521.58	1521.95	1522.31	1522.6	1522.85	1523	1523.05	1523.13	1523.3	1523.44	1523.51	1523.59	1523.64	1523.66	1523.82	1523.98	1524.05	1524.08	1524.07	1524.15	1524.23	1524.37	1524.52	1524.66	1524.7	1524.74	1524.73	1524.72	1524.64	1524.56	1524.42	1524.31	1524.25	1524.19	1524.2	1524.16	1524.12	1524.15	1524.17	1524.17	1524.19	1524.21	1524.2	1524.23	1524.27	1524.33	1524.4	1524.45	1524.48	1524.5	1524.44	1524.52	1524.52	1524.68	1524.76	1524.89	1524.95	1525.1	1525.29	1525.48	1525.52	1525.61	1525.72	1525.86	1526.02	1526.11	1526.13	1526.16	1526.19	1526.29	1526.37	1526.42	1526.48	1526.55	1526.64	1526.69	1526.8	1526.94	1527.12	1527.16	1527.24	1527.24	1527.36	1527.38	1527.48	1527.51	1527.64	1527.79	1528	1528.08	1528.53	1528.65	1528.62	1528.33	1528.33	1528.25	1528.35	1528.36	1528.43	1528.41	1528.55	1528.71	1529.09	1529.41	1529.73	1529.9	1530.06	1530.33	1530.57	1530.89	1531.15	1531.14	1531.06	1531.19	1531.3	1531.3	1531.38	1531.47	1531.51	1531.56	1531.8	1531.82	1531.83	1531.76	1531.7	1531.6	1531.54	1531.43	1531.12	1531.15	1531.42	1531.39	1531.52	1531.74	1531.84	1532.03	1532.35	1532.69	1533.27	1533.07	1532.76	1532.84	1532.94	1532.98	1532.97	1532.98	1533.03	1532.99	1532.79	1532.87	1532.82	1532.7	1532.52	1532.43	1532.39	1532.49	1532.54	1532.43	1532.41	1532.32	1532.16	1532.05	1531.92	1531.61	1531.3	1530.93	1530.68	1530.5	1530.28	1530.05	1529.98	1529.74	1529.69	1529.4	1529.04	1528.71	1528.75	1528.62	1528.14	1527.95	1527.91	1527.77	1527.93	1527.87	1527.77	1527.5	1527.17	1526.92	1526.74	1526.63	1526.58	1526.52	1526.33	1526.17	1526.1	1526.01	1526.08	1526.06	1525.93	1525.99	1525.99	1526.14	1526.1	1526.14	1526.18	1526.19	1526.21	1526.2	1526.16	1526.14	1526.11	1526.05	1526.06	1525.97	1526	1525.94	1525.94	1525.89	1525.87	1525.86	1525.82	1525.78	1525.82	1525.76	1525.7	1525.7	1525.59	1525.56	1525.47	1525.42	1525.34	1525.25
1521.63	1521.75	1521.77	1521.58	1521.46	1521.35	1519.54	1515.51	1511.98	1510.6	1511.74	1512	1512.05	1512.13	1512.21	1512.25	1512.25	1512.18	1512.08	1512.09	1512.09	1512.13	1512.12	1512.15	1512.15	1512.14	1512.1	1512.12	1512.12	1512.13	1512.15	1512.19	1512.22	1512.33	1512.42	1512.49	1512.52	1512.55	1512.63	1512.62	1512.59	1512.58	1512.53	1512.51	1512.49	1512.43	1512.38	1512.35	1512.29	1512.28	1512.22	1512.27	1517.56	1518.6	1520.2	1520.38	1520.52	1517.99	1514.83	1512.66	1512.78	1512.94	1513.14	1513.34	1513.57	1514.02	1514.37	1514.75	1515.1	1515.48	1515.87	1516.16	1516.29	1516.33	1516.35	1516.31	1516.39	1516.66	1516.83	1517.08	1517.26	1517.37	1517.44	1517.44	1517.43	1517.43	1517.45	1517.41	1517.34	1517.33	1517.34	1517.28	1517.23	1517.28	1517.28	1517.33	1517.39	1517.67	1517.91	1518.38	1518.78	1519.15	1519.34	1519.64	1519.79	1519.93	1519.93	1520	1520.02	1520.05	1520.15	1520.23	1520.31	1520.28	1520.19	1520.19	1520.23	1520.28	1520.33	1520.39	1520.42	1520.39	1520.44	1520.64	1520.76	1520.92	1520.92	1520.97	1521.02	1521.05	1521.04	1521.02	1521.01	1520.89	1520.83	1520.88	1520.97	1521.08	1521.11	1521.03	1521.07	1521.13	1521.18	1521.21	1521.19	1521.29	1521.48	1521.73	1522.08	1522.48	1522.84	1523.09	1523.17	1523.21	1523.26	1523.39	1523.55	1523.57	1523.65	1523.7	1523.71	1523.79	1523.89	1524.02	1524.07	1524.09	1524.09	1524.2	1524.34	1524.49	1524.67	1524.74	1524.83	1524.85	1524.84	1524.8	1524.68	1524.57	1524.39	1524.31	1524.19	1524.2	1524.17	1524.15	1524.15	1524.17	1524.21	1524.21	1524.22	1524.21	1524.21	1524.26	1524.34	1524.37	1524.43	1524.45	1524.44	1524.47	1524.49	1524.53	1524.61	1524.76	1524.92	1525.03	1525.12	1525.28	1525.48	1525.57	1525.59	1525.75	1525.89	1525.94	1526.06	1526.14	1526.15	1526.22	1526.25	1526.3	1526.38	1526.51	1526.57	1526.64	1526.77	1526.84	1527.02	1527.2	1527.34	1527.43	1527.42	1527.41	1527.39	1527.51	1527.61	1527.71	1527.79	1528	1528.14	1528.52	1528.54	1528.45	1528.54	1528.45	1528.31	1528.41	1528.42	1528.42	1528.5	1528.67	1528.86	1529.23	1529.42	1529.77	1530.05	1530.29	1530.48	1530.69	1530.91	1531.08	1531.19	1531.38	1531.52	1531.52	1531.61	1531.66	1531.66	1531.7	1531.72	1531.81	1531.81	1531.76	1531.69	1531.71	1531.72	1531.71	1531.61	1531.33	1531.28	1531.3	1531.38	1531.46	1531.63	1531.78	1531.97	1532.11	1532.41	1532.73	1532.8	1532.59	1532.62	1532.67	1532.73	1532.85	1532.92	1532.91	1532.78	1532.84	1532.77	1532.65	1532.5	1532.45	1532.35	1532.17	1532.39	1532.35	1532.38	1532.19	1532.12	1532.04	1531.91	1531.68	1531.41	1531.09	1530.82	1530.65	1530.38	1530.12	1529.81	1529.57	1529.5	1529.33	1529.2	1528.99	1528.67	1528.56	1528.41	1528.16	1527.95	1527.81	1527.68	1527.58	1527.59	1527.4	1527.27	1526.97	1526.76	1526.6	1526.5	1526.44	1526.24	1526.04	1525.86	1525.82	1525.78	1525.74	1525.68	1525.7	1525.7	1525.78	1525.8	1525.88	1525.98	1525.95	1525.99	1526.03	1526.03	1525.99	1526.01	1525.95	1525.97	1525.87	1525.77	1525.77	1525.79	1525.8	1525.71	1525.73	1525.67	1525.71	1525.66	1525.66	1525.64	1525.64	1525.63	1525.54	1525.49	1525.47	1525.43	1525.32	1525.22
